# .PCD v0.7 - Point Cloud Data file format
VERSION 0.7
FIELDS x y z
SIZE 4 4 4
TYPE F F F
COUNT 1 1 1
WIDTH 1637
HEIGHT 1
VIEWPOINT 0 0 0 1 0 0 0
POINTS 1637
DATA ascii
6.0999999 7.0599999 0.40000015
6.0999999 7.0999999 0.40000015
6.0999999 7.1399999 0.40000015
6.0999999 7.1799998 0.40000015
6.0999999 7.2200003 0.40000015
6.1399999 6.9400001 0.40000015
6.1399999 6.98 0.40000015
6.1799998 6.9400001 0.40000015
6.1799998 6.98 0.40000015
6.1399999 7.02 0.40000015
6.1399999 7.0599999 0.40000015
6.1799998 7.02 0.40000015
6.1799998 7.0599999 0.40000015
6.2200003 6.98 0.36000016
6.2600002 6.98 0.36000016
6.2200003 7.02 0.36000016
6.2200003 7.0599999 0.36000016
6.2600002 7.02 0.36000016
6.2600002 7.02 0.40000015
6.1399999 7.0999999 0.40000015
6.1399999 7.1399999 0.40000015
6.1799998 7.1399999 0.36000016
6.1799998 7.1399999 0.40000015
6.1399999 7.2200003 0.40000015
6.1799998 7.2200003 0.40000015
6.2200003 7.0999999 0.40000015
6.2200003 7.1399999 0.40000015
6.2600002 7.0999999 0.40000015
6.2200003 7.1799998 0.40000015
6.2600002 7.2200003 0.40000015
6.0999999 7.2600002 0.40000015
6.0999999 7.3400002 0.40000015
6.0999999 7.3800001 0.40000015
6.0999999 7.4200001 0.40000015
6.1399999 7.3000002 0.40000015
6.1799998 7.2600002 0.40000015
6.1799998 7.3400002 0.36000016
6.1799998 7.3800001 0.40000015
6.2200003 7.2600002 0.40000015
6.2200003 7.3000002 0.40000015
6.2600002 7.2600002 0.40000015
6.2600002 7.3000002 0.40000015
6.1399999 7.4200001 0.36000016
6.1399999 7.4200001 0.40000015
6.1799998 7.4200001 0.36000016
6.1799998 7.4200001 0.40000015
6.1799998 7.54 0.40000015
6.2200003 7.46 0.40000015
6.2200003 7.5 0.36000016
6.2200003 7.5 0.40000015
6.3000002 5.54 0.36000016
6.3000002 5.5799999 0.36000016
6.3000002 5.6199999 0.36000016
6.3400002 5.5799999 0.36000016
6.3400002 5.6199999 0.36000016
6.3800001 5.6199999 0.36000016
6.4200001 5.6199999 0.36000016
6.5799999 5.46 0.32000014
6.54 5.54 0.32000014
6.5799999 5.5 0.32000014
6.5799999 5.6199999 0.32000014
6.54 5.54 0.36000016
6.5799999 5.5 0.36000016
6.5799999 5.54 0.36000016
6.54 5.5799999 0.36000016
6.54 5.6199999 0.36000016
6.5799999 5.5799999 0.36000016
6.5799999 5.6199999 0.36000016
6.7000003 5.02 0.32000014
6.7400002 5.02 0.32000014
6.7000003 5.0999999 0.32000014
6.7400002 5.0599999 0.36000016
6.7000003 5.1399999 0.36000016
6.7400002 5.0999999 0.36000016
6.7400002 5.1399999 0.36000016
6.6599998 5.3000002 0.32000014
6.7000003 5.2200003 0.32000014
6.7000003 5.2600002 0.32000014
6.7000003 5.3000002 0.32000014
6.7400002 5.3000002 0.32000014
6.6599998 5.2600002 0.36000016
6.7400002 5.1799998 0.36000016
6.7400002 5.2200003 0.36000016
6.7000003 5.3000002 0.36000016
6.7800002 5.02 0.32000014
6.7800002 5.0599999 0.32000014
6.7800002 5.0999999 0.32000014
6.8200002 5.1399999 0.32000014
6.8600001 5.0599999 0.32000014
6.9000001 5.02 0.32000014
6.9000001 5.0599999 0.32000014
6.8600001 5.0999999 0.32000014
6.9000001 5.0999999 0.32000014
6.8200002 5.02 0.36000016
6.7800002 5.0999999 0.36000016
6.7800002 5.1399999 0.36000016
6.8600001 5.0999999 0.36000016
6.9000001 5.0999999 0.36000016
6.9000001 5.1399999 0.36000016
6.7800002 5.2600002 0.32000014
6.7800002 5.3000002 0.32000014
6.8200002 5.2600002 0.32000014
6.8200002 5.3000002 0.32000014
6.8600001 5.1799998 0.32000014
6.8600001 5.2200003 0.32000014
6.9000001 5.2200003 0.32000014
6.8600001 5.2600002 0.32000014
6.9000001 5.2600002 0.32000014
6.7800002 5.1799998 0.36000016
6.7800002 5.2200003 0.36000016
6.8200002 5.1799998 0.36000016
6.7800002 5.3000002 0.36000016
6.8600001 5.3000002 0.36000016
6.6599998 5.3800001 0.32000014
6.6199999 5.4200001 0.32000014
6.6199999 5.46 0.32000014
6.7400002 5.3400002 0.32000014
6.7400002 5.4200001 0.32000014
6.7400002 5.46 0.32000014
6.6199999 5.3400002 0.36000016
6.6599998 5.3400002 0.36000016
6.6599998 5.3800001 0.36000016
6.6199999 5.46 0.36000016
6.6599998 5.4200001 0.36000016
6.6599998 5.46 0.36000016
6.7000003 5.3400002 0.36000016
6.7000003 5.3800001 0.36000016
6.7400002 5.3800001 0.36000016
6.7000003 5.4200001 0.36000016
6.6599998 5.54 0.32000014
6.6199999 5.6199999 0.32000014
6.6599998 5.5799999 0.32000014
6.6599998 5.6199999 0.32000014
6.7000003 5.5 0.32000014
6.7400002 5.5 0.32000014
6.7000003 5.5799999 0.32000014
6.7000003 5.6199999 0.32000014
6.6199999 5.5 0.36000016
6.6199999 5.54 0.36000016
6.6599998 5.5 0.36000016
6.6199999 5.5799999 0.36000016
6.7000003 5.5 0.36000016
6.7000003 5.54 0.36000016
6.7400002 5.54 0.36000016
6.7000003 5.6199999 0.36000016
6.7400002 5.5799999 0.36000016
6.7400002 5.6199999 0.36000016
6.8200002 5.3400002 0.32000014
6.7800002 5.4200001 0.32000014
6.7800002 5.46 0.32000014
6.8200002 5.4200001 0.32000014
6.9000001 5.3400002 0.32000014
6.8600001 5.4200001 0.32000014
6.9000001 5.46 0.32000014
6.7800002 5.3400002 0.36000016
6.7800002 5.3800001 0.36000016
6.8200002 5.3400002 0.36000016
6.8200002 5.3800001 0.36000016
6.8200002 5.4200001 0.36000016
6.8200002 5.46 0.36000016
6.9000001 5.3800001 0.36000016
6.9000001 5.4200001 0.36000016
6.9000001 5.46 0.36000016
6.8200002 5.5 0.32000014
6.8600001 5.5 0.32000014
6.9000001 5.5 0.32000014
6.8600001 5.5799999 0.32000014
6.8600001 5.6199999 0.32000014
6.9000001 5.5799999 0.32000014
6.9000001 5.6199999 0.32000014
6.7800002 5.5 0.36000016
6.7800002 5.54 0.36000016
6.8200002 5.5 0.36000016
6.8200002 5.54 0.36000016
6.7800002 5.5799999 0.36000016
6.7800002 5.6199999 0.36000016
6.8200002 5.5799999 0.36000016
6.8200002 5.6199999 0.36000016
6.8600001 5.5 0.36000016
6.9000001 5.54 0.36000016
6.9000001 5.5799999 0.36000016
6.9000001 5.6199999 0.36000016
6.3000002 5.6599998 0.32000014
6.3800001 5.6599998 0.32000014
6.3800001 5.7000003 0.32000014
6.3800001 5.7800002 0.32000014
6.4200001 5.7400002 0.32000014
6.4200001 5.7800002 0.32000014
6.3000002 5.6599998 0.36000016
6.3000002 5.7000003 0.36000016
6.3400002 5.6599998 0.36000016
6.3000002 5.7400002 0.36000016
6.3000002 5.7800002 0.36000016
6.3400002 5.7400002 0.36000016
6.3400002 5.7800002 0.36000016
6.3800001 5.6599998 0.36000016
6.4200001 5.6599998 0.36000016
6.4200001 5.7000003 0.36000016
6.3800001 5.7400002 0.36000016
6.3800001 5.7800002 0.36000016
6.4200001 5.7800002 0.36000016
6.3800001 5.8600001 0.32000014
6.3800001 5.9000001 0.32000014
6.3800001 5.9400001 0.32000014
6.3000002 5.8200002 0.36000016
6.3000002 5.8600001 0.36000016
6.3400002 5.8200002 0.36000016
6.3400002 5.8600001 0.36000016
6.3000002 5.9000001 0.36000016
6.3000002 5.9400001 0.36000016
6.3400002 5.9000001 0.36000016
6.3400002 5.9400001 0.36000016
6.4200001 5.8600001 0.36000016
6.4200001 5.9000001 0.36000016
6.4200001 5.9400001 0.36000016
6.46 5.6599998 0.32000014
6.46 5.7400002 0.32000014
6.5 5.7800002 0.32000014
6.46 5.6599998 0.36000016
6.46 5.7000003 0.36000016
6.5 5.6599998 0.36000016
6.5 5.7000003 0.36000016
6.46 5.7400002 0.36000016
6.46 5.7800002 0.36000016
6.5 5.7400002 0.36000016
6.5 5.7800002 0.36000016
6.54 5.6599998 0.36000016
6.54 5.7000003 0.36000016
6.5799999 5.6599998 0.36000016
6.5799999 5.7000003 0.36000016
6.54 5.7400002 0.36000016
6.5799999 5.7400002 0.36000016
6.54 5.7800002 0.48000017
6.5799999 5.7800002 0.48000017
6.46 5.8200002 0.32000014
6.5 5.8200002 0.32000014
6.5 5.8600001 0.32000014
6.5 5.9000001 0.32000014
6.54 5.8200002 0.32000014
6.46 5.8600001 0.36000016
6.46 5.9000001 0.36000016
6.46 5.9400001 0.36000016
6.54 5.8200002 0.36000016
6.54 5.8600001 0.36000016
6.5799999 5.8200002 0.36000016
6.5799999 5.8600001 0.36000016
6.54 5.8600001 0.48000017
6.5799999 5.8200002 0.48000017
6.5799999 5.8600001 0.48000017
6.5799999 5.9000001 0.48000017
6.4200001 5.7800002 0.68000013
6.3400002 5.9000001 0.64000016
6.3800001 5.8600001 0.64000016
6.4200001 5.8200002 0.64000016
6.3000002 5.9400001 0.68000013
6.3000002 5.9400001 0.72000015
6.3400002 5.9000001 0.68000013
6.3400002 5.9000001 0.72000015
6.3400002 5.9400001 0.76000017
6.3800001 5.8600001 0.68000013
6.3800001 5.8600001 0.72000015
6.4200001 5.8200002 0.68000013
6.4200001 5.8200002 0.72000015
6.4200001 5.8600001 0.72000015
6.4200001 5.8600001 0.76000017
6.3800001 5.9000001 0.76000017
6.3800001 5.9400001 0.76000017
6.4200001 5.9000001 0.76000017
6.4200001 5.9400001 0.76000017
6.5 5.7000003 0.64000016
6.46 5.7400002 0.64000016
6.54 5.7000003 0.64000016
6.5 5.7000003 0.68000013
6.46 5.7400002 0.68000013
6.46 5.7800002 0.72000015
6.5 5.7400002 0.68000013
6.5 5.7400002 0.72000015
6.54 5.6599998 0.68000013
6.54 5.7000003 0.68000013
6.54 5.7000003 0.72000015
6.5799999 5.6599998 0.68000013
6.5799999 5.7000003 0.72000015
6.5799999 5.7000003 0.76000017
6.54 5.7400002 0.76000017
6.54 5.7800002 0.76000017
6.5799999 5.7400002 0.76000017
6.5799999 5.7800002 0.76000017
6.54 5.8200002 0.52000016
6.54 5.8600001 0.52000016
6.54 5.8600001 0.56000018
6.5799999 5.8600001 0.60000014
6.54 5.9000001 0.52000016
6.54 5.9400001 0.52000016
6.5799999 5.9000001 0.52000016
6.5799999 5.9400001 0.52000016
6.5799999 5.9400001 0.56000018
6.46 5.8200002 0.68000013
6.46 5.8200002 0.72000015
6.46 5.8600001 0.72000015
6.5 5.8200002 0.72000015
6.46 5.8600001 0.76000017
6.5 5.8200002 0.76000017
6.5 5.8600001 0.76000017
6.5 5.8600001 0.80000013
6.46 5.9000001 0.76000017
6.46 5.9400001 0.76000017
6.5 5.9000001 0.76000017
6.54 5.8200002 0.76000017
6.54 5.8600001 0.76000017
6.5799999 5.8200002 0.76000017
6.5799999 5.8200002 0.80000013
6.54 5.9000001 0.72000015
6.3400002 5.98 0.32000014
6.3800001 6.02 0.32000014
6.3000002 5.98 0.36000016
6.3000002 6.02 0.36000016
6.3000002 6.02 0.40000015
6.3400002 5.98 0.36000016
6.3400002 6.02 0.36000016
6.3000002 6.02 0.44000015
6.3000002 6.02 0.48000017
6.3000002 6.0599999 0.36000016
6.3400002 6.0599999 0.36000016
6.3800001 5.98 0.36000016
6.3800001 6.02 0.36000016
6.3000002 5.98 0.72000015
6.3000002 5.98 0.76000017
6.3400002 5.98 0.76000017
6.3400002 6.02 0.76000017
6.3000002 6.0599999 0.76000017
6.3000002 6.0999999 0.76000017
6.3400002 6.0599999 0.80000013
6.3800001 5.98 0.72000015
6.3800001 5.98 0.76000017
6.3800001 6.02 0.76000017
6.3800001 6.02 0.80000013
6.4200001 5.98 0.76000017
6.4200001 5.98 0.80000013
6.3000002 6.1399999 0.76000017
6.6199999 5.6599998 0.32000014
6.6599998 5.6599998 0.32000014
6.6599998 5.7000003 0.32000014
6.6199999 5.7800002 0.32000014
6.7400002 5.7800002 0.32000014
6.6199999 5.6599998 0.36000016
6.6199999 5.7000003 0.36000016
6.6599998 5.7000003 0.36000016
6.6199999 5.7400002 0.36000016
6.6599998 5.7800002 0.36000016
6.6199999 5.7800002 0.44000015
6.6599998 5.7800002 0.48000017
6.7000003 5.6599998 0.36000016
6.7400002 5.6599998 0.36000016
6.7400002 5.7000003 0.36000016
6.7000003 5.7400002 0.36000016
6.7400002 5.7400002 0.36000016
6.6199999 5.8200002 0.32000014
6.6599998 5.8200002 0.32000014
6.7000003 5.8200002 0.32000014
6.7000003 5.8600001 0.32000014
6.7400002 5.8200002 0.32000014
6.7000003 5.9000001 0.32000014
6.7400002 5.9000001 0.32000014
6.7400002 5.9400001 0.32000014
6.6199999 5.8200002 0.36000016
6.6199999 5.8600001 0.36000016
6.6199999 5.8600001 0.40000015
6.6599998 5.8200002 0.36000016
6.6599998 5.8600001 0.36000016
6.6199999 5.8200002 0.44000015
6.6199999 5.8200002 0.48000017
6.6199999 5.8600001 0.48000017
6.6599998 5.8200002 0.48000017
6.6599998 5.9000001 0.36000016
6.6599998 5.9400001 0.36000016
6.7000003 5.8600001 0.36000016
6.7400002 5.8200002 0.36000016
6.7000003 5.8200002 0.48000017
6.7000003 5.8600001 0.44000015
6.7000003 5.9000001 0.36000016
6.7000003 5.9400001 0.36000016
6.7400002 5.9400001 0.36000016
6.7800002 5.7000003 0.32000014
6.8200002 5.6599998 0.32000014
6.7800002 5.7400002 0.32000014
6.7800002 5.7800002 0.32000014
6.8200002 5.7800002 0.32000014
6.8600001 5.7000003 0.32000014
6.7800002 5.6599998 0.36000016
6.7800002 5.7000003 0.36000016
6.8200002 5.6599998 0.36000016
6.8200002 5.7000003 0.36000016
6.8200002 5.7400002 0.36000016
6.8200002 5.7800002 0.36000016
6.8600001 5.6599998 0.36000016
6.8600001 5.7000003 0.36000016
6.9000001 5.6599998 0.36000016
6.9000001 5.7000003 0.36000016
6.8600001 5.7400002 0.36000016
6.8600001 5.7800002 0.36000016
6.9000001 5.7400002 0.36000016
6.9000001 5.7800002 0.36000016
6.7800002 5.8200002 0.32000014
6.9000001 5.8600001 0.32000014
6.8600001 5.9000001 0.32000014
6.8600001 5.9400001 0.32000014
6.9000001 5.9000001 0.32000014
6.7800002 5.8200002 0.36000016
6.8200002 5.8200002 0.36000016
6.8200002 5.8600001 0.36000016
6.7800002 5.9000001 0.36000016
6.8200002 5.9000001 0.36000016
6.8200002 5.9400001 0.36000016
6.8600001 5.8200002 0.36000016
6.8600001 5.8600001 0.36000016
6.8600001 5.9000001 0.36000016
6.9000001 5.9000001 0.36000016
6.9000001 5.9400001 0.36000016
6.7000003 5.7800002 0.56000018
6.6199999 5.7000003 0.76000017
6.6199999 5.7800002 0.76000017
6.6599998 5.7400002 0.76000017
6.6199999 5.8600001 0.52000016
6.6599998 5.8600001 0.52000016
6.6199999 5.8600001 0.64000016
6.6199999 5.9000001 0.52000016
6.6199999 5.9400001 0.52000016
6.6199999 5.9400001 0.56000018
6.6599998 5.9000001 0.52000016
6.6599998 5.9000001 0.56000018
6.6599998 5.9400001 0.52000016
6.6599998 5.9400001 0.56000018
6.6599998 5.9000001 0.60000014
6.7000003 5.8200002 0.52000016
6.7000003 5.8600001 0.56000018
6.7000003 5.9000001 0.56000018
6.7000003 5.9000001 0.60000014
6.6199999 5.8200002 0.76000017
6.7400002 6.02 0.36000016
6.7000003 6.0599999 0.36000016
6.7400002 6.0599999 0.36000016
6.7400002 6.1799998 0.32000014
6.7000003 6.1399999 0.36000016
6.7000003 6.1799998 0.36000016
6.7400002 6.1399999 0.36000016
6.7400002 6.1799998 0.36000016
6.7400002 6.2600002 0.36000016
6.7800002 5.98 0.32000014
6.8600001 5.98 0.32000014
6.9000001 6.02 0.32000014
6.9000001 6.0599999 0.32000014
6.7800002 5.98 0.36000016
6.7800002 6.02 0.36000016
6.8200002 5.98 0.36000016
6.8200002 6.02 0.36000016
6.7800002 6.0599999 0.36000016
6.7800002 6.0999999 0.36000016
6.8200002 6.0599999 0.36000016
6.8600001 5.98 0.36000016
6.8600001 6.02 0.36000016
6.9000001 5.98 0.36000016
6.8600001 6.0599999 0.36000016
6.8600001 6.0999999 0.36000016
6.9000001 6.0599999 0.36000016
6.9000001 6.0999999 0.36000016
6.7800002 6.2200003 0.32000014
6.8200002 6.2200003 0.32000014
6.8200002 6.2600002 0.32000014
6.9000001 6.1799998 0.32000014
6.7800002 6.1399999 0.36000016
6.8200002 6.1399999 0.36000016
6.7800002 6.2200003 0.36000016
6.7800002 6.2600002 0.36000016
6.8200002 6.2200003 0.36000016
6.8200002 6.2600002 0.36000016
6.8600001 6.1399999 0.36000016
6.8600001 6.1799998 0.36000016
6.9000001 6.1799998 0.36000016
6.8600001 6.2200003 0.40000015
6.9000001 6.2200003 0.36000016
6.98 5.6199999 0.16000016
6.9400001 5.02 0.32000014
6.9400001 5.0999999 0.32000014
6.9400001 5.2200003 0.32000014
6.9400001 5.3000002 0.32000014
6.9400001 5.3400002 0.32000014
6.9400001 5.46 0.32000014
6.9400001 5.54 0.32000014
6.9400001 5.5799999 0.32000014
6.9400001 5.6199999 0.32000014
6.9400001 5.6199999 0.36000016
6.9400001 5.6599998 0.32000014
6.9400001 5.7000003 0.32000014
6.9400001 5.7800002 0.32000014
6.9400001 5.6599998 0.36000016
6.9400001 5.7000003 0.36000016
6.9400001 5.8200002 0.32000014
6.9400001 5.9000001 0.32000014
6.9400001 5.8600001 0.36000016
6.9400001 5.9400001 0.36000016
6.9400001 6.02 0.32000014
6.9400001 6.0599999 0.36000016
6.9400001 6.0999999 0.36000016
6.4200001 6.5799999 0.36000016
6.5799999 6.4200001 0.36000016
6.46 6.5 0.36000016
6.5 6.5 0.36000016
6.46 6.54 0.36000016
6.5 6.54 0.36000016
6.5 6.54 0.40000015
6.5 6.5799999 0.36000016
6.54 6.46 0.36000016
6.5799999 6.46 0.36000016
6.5799999 6.5 0.36000016
6.54 6.54 0.36000016
6.54 6.54 0.40000015
6.54 6.5799999 0.36000016
6.54 6.5799999 0.40000015
6.5799999 6.54 0.36000016
6.5799999 6.5799999 0.36000016
6.5799999 6.5799999 0.40000015
6.3400002 6.6599998 0.36000016
6.3000002 6.7000003 0.40000015
6.3000002 6.7400002 0.36000016
6.3000002 6.7400002 0.40000015
6.3400002 6.7000003 0.36000016
6.3400002 6.7400002 0.36000016
6.3800001 6.6599998 0.36000016
6.4200001 6.6199999 0.36000016
6.4200001 6.6599998 0.36000016
6.4200001 6.6599998 0.40000015
6.3800001 6.7000003 0.36000016
6.3800001 6.7400002 0.40000015
6.4200001 6.7400002 0.36000016
6.3000002 6.7800002 0.40000015
6.3400002 6.7800002 0.40000015
6.3400002 6.8200002 0.36000016
6.3000002 6.8600001 0.40000015
6.3000002 6.9000001 0.40000015
6.3400002 6.8600001 0.36000016
6.3400002 6.9000001 0.40000015
6.3800001 6.8200002 0.40000015
6.4200001 6.7800002 0.40000015
6.4200001 6.8200002 0.36000016
6.3800001 6.8600001 0.40000015
6.3800001 6.9000001 0.40000015
6.4200001 6.8600001 0.40000015
6.4200001 6.9000001 0.36000016
6.46 6.6199999 0.36000016
6.46 6.6599998 0.40000015
6.5 6.6199999 0.36000016
6.5 6.6199999 0.40000015
6.46 6.7400002 0.36000016
6.46 6.7400002 0.40000015
6.5 6.7000003 0.36000016
6.5 6.7400002 0.36000016
6.5 6.7400002 0.40000015
6.54 6.6199999 0.40000015
6.5799999 6.6599998 0.36000016
6.54 6.7000003 0.36000016
6.54 6.7400002 0.36000016
6.5799999 6.9000001 0.32000014
6.46 6.7800002 0.40000015
6.46 6.8200002 0.40000015
6.5 6.7800002 0.40000015
6.5 6.8200002 0.40000015
6.54 6.7800002 0.36000016
6.54 6.8200002 0.40000015
6.5799999 6.7800002 0.36000016
6.5799999 6.8200002 0.36000016
6.54 6.9000001 0.36000016
6.5799999 6.8600001 0.36000016
6.5799999 6.9000001 0.36000016
6.7000003 6.3400002 0.32000014
6.6599998 6.3000002 0.40000015
6.6599998 6.3400002 0.36000016
6.6199999 6.3800001 0.36000016
6.6199999 6.4200001 0.36000016
6.6599998 6.3800001 0.36000016
6.6599998 6.4200001 0.36000016
6.7000003 6.3000002 0.36000016
6.7000003 6.3400002 0.36000016
6.7400002 6.3000002 0.36000016
6.7400002 6.3400002 0.36000016
6.7000003 6.3800001 0.36000016
6.7000003 6.4200001 0.36000016
6.7400002 6.3800001 0.36000016
6.7400002 6.4200001 0.36000016
6.6199999 6.46 0.36000016
6.6199999 6.5 0.36000016
6.6599998 6.46 0.36000016
6.6599998 6.5 0.36000016
6.6199999 6.54 0.36000016
6.6199999 6.5799999 0.36000016
6.6599998 6.54 0.36000016
6.6599998 6.5799999 0.36000016
6.7000003 6.46 0.36000016
6.7000003 6.5 0.36000016
6.7400002 6.5 0.36000016
6.7000003 6.54 0.36000016
6.7000003 6.5799999 0.36000016
6.7400002 6.54 0.36000016
6.7400002 6.5799999 0.36000016
6.7800002 6.4200001 0.32000014
6.8200002 6.3800001 0.32000014
6.8600001 6.4200001 0.32000014
6.8200002 6.4200001 0.36000016
6.9000001 6.3000002 0.36000016
6.9000001 6.3400002 0.36000016
6.8600001 6.3800001 0.36000016
6.8600001 6.4200001 0.36000016
6.9000001 6.3800001 0.36000016
6.9000001 6.4200001 0.36000016
6.7800002 6.46 0.32000014
6.9000001 6.46 0.32000014
6.9000001 6.5 0.32000014
6.7800002 6.46 0.36000016
6.7800002 6.5 0.36000016
6.8200002 6.46 0.36000016
6.8200002 6.5 0.36000016
6.7800002 6.54 0.36000016
6.8200002 6.54 0.36000016
6.8200002 6.5799999 0.36000016
6.8600001 6.46 0.36000016
6.8600001 6.5 0.36000016
6.9000001 6.46 0.36000016
6.9000001 6.54 0.36000016
6.6199999 6.6199999 0.36000016
6.6599998 6.6199999 0.36000016
6.6599998 6.6199999 0.40000015
6.6599998 6.6599998 0.36000016
6.6199999 6.7400002 0.36000016
6.6599998 6.7400002 0.36000016
6.7000003 6.6199999 0.36000016
6.7400002 6.6199999 0.36000016
6.7400002 6.6599998 0.36000016
6.7000003 6.7000003 0.36000016
6.7000003 6.7400002 0.36000016
6.7400002 6.7000003 0.36000016
6.7400002 6.7400002 0.36000016
6.6199999 6.8200002 0.36000016
6.6599998 6.7800002 0.36000016
6.6599998 6.7800002 0.40000015
6.6199999 6.8600001 0.36000016
6.6199999 6.8600001 0.40000015
6.6599998 6.8600001 0.40000015
6.7000003 6.7800002 0.36000016
6.7000003 6.8200002 0.40000015
6.7400002 6.7800002 0.36000016
6.7400002 6.8200002 0.36000016
6.7000003 6.8600001 0.40000015
6.7400002 6.8600001 0.40000015
6.7400002 6.9000001 0.40000015
6.9000001 6.6199999 0.32000014
6.7800002 6.6199999 0.36000016
6.7800002 6.6599998 0.36000016
6.7800002 6.6599998 0.40000015
6.8200002 6.6199999 0.36000016
6.8200002 6.7000003 0.36000016
6.8600001 6.6199999 0.36000016
6.8600001 6.6599998 0.36000016
6.9000001 6.6199999 0.36000016
6.9000001 6.6599998 0.36000016
6.9000001 6.6599998 0.40000015
6.8600001 6.7000003 0.36000016
6.8600001 6.7400002 0.36000016
6.9000001 6.7000003 0.36000016
6.7800002 6.8200002 0.36000016
6.7800002 6.8200002 0.40000015
6.8200002 6.7800002 0.36000016
6.8200002 6.8200002 0.40000015
6.7800002 6.8600001 0.40000015
6.8600001 6.8200002 0.36000016
6.9000001 6.7800002 0.36000016
6.9000001 6.8200002 0.36000016
6.8600001 6.8600001 0.36000016
6.8600001 6.9000001 0.36000016
6.3400002 6.9400001 0.40000015
6.3000002 7.02 0.40000015
6.3000002 7.0599999 0.40000015
6.3400002 7.02 0.40000015
6.3400002 7.0599999 0.40000015
6.3800001 6.9400001 0.40000015
6.4200001 6.9400001 0.36000016
6.4200001 6.98 0.40000015
6.3800001 7.0599999 0.36000016
6.4200001 7.0599999 0.40000015
6.3000002 7.1399999 0.40000015
6.3400002 7.0999999 0.40000015
6.3000002 7.1799998 0.40000015
6.3400002 7.2200003 0.40000015
6.3800001 7.0999999 0.40000015
6.4200001 7.0999999 0.36000016
6.4200001 7.0999999 0.40000015
6.4200001 7.1399999 0.40000015
6.3800001 7.1799998 0.36000016
6.4200001 7.1799998 0.40000015
6.46 6.9400001 0.40000015
6.46 6.98 0.40000015
6.5 6.98 0.36000016
6.46 7.0599999 0.36000016
6.5 7.02 0.36000016
6.5 7.0599999 0.36000016
6.5 7.0599999 0.40000015
6.54 6.9400001 0.36000016
6.54 6.98 0.36000016
6.5799999 6.9400001 0.36000016
6.5799999 6.98 0.36000016
6.54 7.02 0.36000016
6.5799999 7.02 0.36000016
6.5799999 7.0599999 0.36000016
6.46 7.0999999 0.36000016
6.5 7.0999999 0.36000016
6.46 7.1799998 0.36000016
6.5 7.1799998 0.40000015
6.5 7.2200003 0.36000016
6.54 7.0999999 0.36000016
6.54 7.1799998 0.36000016
6.5799999 7.1799998 0.36000016
6.5799999 7.2200003 0.40000015
6.3400002 7.2600002 0.40000015
6.3400002 7.3000002 0.40000015
6.3000002 7.3400002 0.40000015
6.3800001 7.2600002 0.40000015
6.3800001 7.3400002 0.36000016
6.3800001 7.3800001 0.36000016
6.4200001 7.3800001 0.36000016
6.4200001 7.3800001 0.40000015
6.3000002 7.4200001 0.40000015
6.3000002 7.46 0.40000015
6.3400002 7.4200001 0.36000016
6.3400002 7.4200001 0.40000015
6.3000002 7.5 0.40000015
6.3000002 7.54 0.40000015
6.3400002 7.5 0.40000015
6.4200001 7.4200001 0.40000015
6.4200001 7.46 0.40000015
6.3800001 7.5 0.40000015
6.46 7.2600002 0.36000016
6.46 7.3000002 0.36000016
6.46 7.3000002 0.40000015
6.5 7.2600002 0.36000016
6.5 7.3000002 0.36000016
6.5 7.3000002 0.40000015
6.5 7.3800001 0.40000015
6.54 7.3000002 0.36000016
6.54 7.3000002 0.40000015
6.5799999 7.2600002 0.40000015
6.5799999 7.3400002 0.36000016
6.5799999 7.3800001 0.40000015
6.46 7.4200001 0.40000015
6.46 7.46 0.40000015
6.5 7.4200001 0.36000016
6.5 7.46 0.36000016
6.5 7.5 0.40000015
6.5799999 7.4200001 0.36000016
6.5799999 7.4200001 0.40000015
6.54 7.54 0.40000015
6.5799999 7.5 0.40000015
6.7400002 7.0599999 0.32000014
6.6599998 6.9400001 0.36000016
6.6599998 6.98 0.36000016
6.6199999 7.02 0.36000016
6.6199999 7.0599999 0.36000016
6.7000003 6.9400001 0.40000015
6.7000003 6.98 0.40000015
6.7000003 7.0599999 0.36000016
6.7400002 7.02 0.36000016
6.6599998 7.0999999 0.32000014
6.6199999 7.1399999 0.40000015
6.6599998 7.0999999 0.36000016
6.6599998 7.1399999 0.36000016
6.6199999 7.1799998 0.40000015
6.6199999 7.2200003 0.40000015
6.6599998 7.2200003 0.40000015
6.7000003 7.0999999 0.40000015
6.7000003 7.1399999 0.40000015
6.7400002 7.0999999 0.36000016
6.7400002 7.1399999 0.36000016
6.7000003 7.1799998 0.40000015
6.7800002 6.9400001 0.36000016
6.7800002 6.98 0.36000016
6.8200002 6.9400001 0.36000016
6.7800002 7.02 0.36000016
6.7800002 7.0599999 0.36000016
6.8200002 7.02 0.36000016
6.8600001 6.9400001 0.36000016
6.9000001 6.98 0.36000016
6.8600001 7.0599999 0.36000016
6.9000001 7.02 0.36000016
6.7800002 7.0999999 0.36000016
6.7800002 7.1399999 0.36000016
6.7800002 7.1799998 0.36000016
6.8200002 7.1799998 0.36000016
6.8600001 7.0999999 0.40000015
6.9000001 7.1399999 0.36000016
6.6199999 7.2600002 0.40000015
6.7000003 7.3000002 0.36000016
6.7400002 7.2600002 0.36000016
6.7400002 7.3000002 0.36000016
6.7000003 7.3800001 0.40000015
6.7400002 7.3800001 0.40000015
6.6599998 7.4200001 0.36000016
6.6199999 7.5 0.36000016
6.6599998 7.54 0.36000016
6.7000003 7.4200001 0.36000016
6.7000003 7.54 0.36000016
6.7400002 7.54 0.36000016
6.7800002 7.2600002 0.36000016
6.7800002 7.3000002 0.36000016
6.8200002 7.2600002 0.36000016
6.8200002 7.3000002 0.40000015
6.7800002 7.3400002 0.36000016
6.7800002 7.3800001 0.36000016
6.8200002 7.3400002 0.40000015
6.8600001 7.2600002 0.36000016
6.8600001 7.3000002 0.40000015
6.8600001 7.3800001 0.36000016
6.7800002 7.46 0.36000016
6.8200002 7.46 0.36000016
6.7800002 7.5 0.40000015
6.8600001 7.4200001 0.36000016
6.9000001 7.4200001 0.36000016
6.9000001 7.54 0.36000016
6.9000001 7.54 0.40000015
6.9400001 6.3000002 0.32000014
6.9400001 6.3400002 0.32000014
6.9400001 6.3000002 0.36000016
6.9400001 6.4200001 0.36000016
6.9400001 6.6199999 0.32000014
6.9400001 6.6599998 0.32000014
6.9400001 6.7000003 0.36000016
6.9400001 6.7400002 0.36000016
6.9400001 6.9400001 0.36000016
6.98 6.98 0.40000015
6.9400001 7.02 0.36000016
6.9400001 7.02 0.40000015
6.98 7.0999999 0.20000015
6.9400001 7.0999999 0.36000016
5.02 8.3400002 0.12000015
5.02 8.46 0.12000015
5.02 8.46 0.16000016
5.1399999 8.46 0.16000016
5.0599999 8.6199999 0.16000016
5.1399999 8.6599998 0.16000016
5.1799998 8.6599998 0.16000016
5.2600002 8.5799999 0.12000015
5.2200003 8.6999998 0.16000016
5.2600002 8.8199997 0.12000015
5.4200001 8.2200003 0.16000016
5.46 8.6599998 0.12000015
5.0999999 8.6999998 0.24000016
5.3800001 8.5799999 0.20000015
6.02 7.7000003 0.40000015
6.0599999 7.5799999 0.40000015
6.0599999 7.6199999 0.40000015
6.0999999 7.5799999 0.40000015
6.0999999 7.6199999 0.40000015
6.0599999 7.6599998 0.40000015
6.0599999 7.7000003 0.40000015
6.0999999 7.6599998 0.40000015
6.02 7.7800002 0.40000015
6.0599999 7.7400002 0.40000015
6.0599999 7.7800002 0.40000015
6.0999999 7.7400002 0.40000015
6.0999999 7.7800002 0.40000015
6.0599999 7.8200002 0.40000015
6.0599999 7.8600001 0.40000015
6.0999999 7.8600001 0.40000015
6.1399999 7.5799999 0.40000015
6.1399999 7.6199999 0.40000015
6.1799998 7.5799999 0.40000015
6.1799998 7.6199999 0.40000015
6.2200003 7.5799999 0.40000015
6.2200003 7.6199999 0.40000015
6.2600002 7.5799999 0.36000016
6.2600002 7.6199999 0.36000016
6.2600002 7.7400002 0.40000015
6.2600002 7.7800002 0.36000016
6.2600002 7.7800002 0.40000015
6.2600002 7.8600001 0.40000015
6.0599999 7.9400001 0.40000015
6.0999999 7.9000001 0.40000015
6.0999999 7.9400001 0.40000015
6.0599999 7.98 0.40000015
6.0599999 8.0200005 0.40000015
6.0999999 7.98 0.40000015
6.0999999 8.0200005 0.40000015
6.0599999 8.0600004 0.40000015
6.0599999 8.1000004 0.40000015
6.0599999 8.1800003 0.40000015
6.0999999 8.1400003 0.40000015
6.0999999 8.1800003 0.40000015
6.2200003 7.9000001 0.40000015
6.2200003 7.9400001 0.40000015
6.2600002 7.9000001 0.40000015
6.2600002 7.9400001 0.40000015
6.2600002 7.98 0.40000015
6.2600002 8.0200005 0.40000015
6.1399999 8.1800003 0.40000015
6.2600002 8.0600004 0.40000015
6.2200003 8.1400003 0.40000015
5.7000003 8.7399998 0.12000015
6.02 8.3000002 0.40000015
6.0599999 8.2200003 0.40000015
6.0599999 8.2600002 0.40000015
6.0999999 8.2600002 0.40000015
6.0999999 8.2600002 0.44000015
6.1399999 8.3000002 0.40000015
6.1799998 8.3000002 0.40000015
6.2200003 8.3000002 0.40000015
6.2200003 8.3400002 0.40000015
6.2600002 8.3000002 0.36000016
6.2600002 8.3000002 0.40000015
5.0999999 8.9400005 0.16000016
5.2600002 9.0200005 0.12000015
5.02 9.2600002 0.16000016
5.02 9.3800001 0.16000016
5.3800001 9.3000002 0.12000015
5.46 9.1800003 0.12000015
5.4200001 9.3000002 0.12000015
5.3800001 9.3400002 0.12000015
5.4200001 9.3400002 0.12000015
5.6599998 9.0600004 0.12000015
6.3000002 7.6199999 0.40000015
6.3400002 7.5799999 0.40000015
6.3400002 7.6199999 0.40000015
6.3000002 7.6599998 0.40000015
6.3400002 7.6599998 0.40000015
6.3800001 7.5799999 0.36000016
6.3800001 7.6199999 0.40000015
6.4200001 7.5799999 0.36000016
6.4200001 7.6199999 0.40000015
6.3000002 7.8200002 0.36000016
6.3000002 7.8600001 0.40000015
6.4200001 7.8600001 0.40000015
6.46 7.5799999 0.36000016
6.46 7.6199999 0.40000015
6.5 7.5799999 0.36000016
6.5 7.6199999 0.36000016
6.46 7.6599998 0.40000015
6.5 7.6599998 0.40000015
6.54 7.6199999 0.36000016
6.5799999 7.5799999 0.40000015
6.5799999 7.6199999 0.40000015
6.46 7.8600001 0.40000015
6.5 7.8600001 0.40000015
6.54 7.8600001 0.36000016
6.3000002 7.9000001 0.40000015
6.3000002 7.9400001 0.40000015
6.4200001 7.9000001 0.40000015
6.3000002 8.0600004 0.40000015
6.3000002 8.1000004 0.40000015
6.5 7.9400001 0.36000016
6.54 7.9000001 0.36000016
6.5799999 7.9000001 0.36000016
6.5799999 7.9400001 0.36000016
6.46 8.1000004 0.40000015
6.7400002 7.5799999 0.32000014
6.6199999 7.5799999 0.36000016
6.6199999 7.5799999 0.40000015
6.6199999 7.6199999 0.40000015
6.6599998 7.5799999 0.36000016
6.6599998 7.5799999 0.40000015
6.6599998 7.6199999 0.40000015
6.7000003 7.5799999 0.36000016
6.7000003 7.6199999 0.40000015
6.7400002 7.5799999 0.36000016
6.7400002 7.6199999 0.36000016
6.7400002 7.6599998 0.36000016
6.7400002 7.7000003 0.36000016
6.7400002 7.7400002 0.40000015
6.7400002 7.7800002 0.40000015
6.7400002 7.8200002 0.40000015
6.7800002 7.6199999 0.36000016
6.7800002 7.6599998 0.36000016
6.7800002 7.7000003 0.36000016
6.7800002 7.7000003 0.40000015
6.8200002 7.7000003 0.36000016
6.9000001 7.5799999 0.40000015
6.8600001 7.7000003 0.40000015
6.7800002 7.7400002 0.40000015
6.7800002 7.7800002 0.40000015
6.8200002 7.7400002 0.40000015
6.8200002 7.7800002 0.40000015
6.7800002 7.8200002 0.40000015
6.8200002 7.8600001 0.40000015
6.9000001 7.7800002 0.40000015
6.8600001 7.8200002 0.40000015
6.7400002 7.9400001 0.40000015
6.7400002 8.0200005 0.40000015
6.7400002 8.0600004 0.40000015
6.7400002 8.1000004 0.40000015
6.7400002 8.1800003 0.40000015
6.7800002 7.9000001 0.40000015
6.7800002 7.9400001 0.40000015
6.8200002 7.9000001 0.40000015
6.7800002 7.98 0.40000015
6.7800002 8.0600004 0.40000015
6.7800002 8.1000004 0.40000015
6.7800002 8.1400003 0.40000015
6.8600001 8.1400003 0.40000015
6.3000002 8.2600002 0.40000015
6.3400002 8.2600002 0.40000015
6.3000002 8.3400002 0.40000015
6.3400002 8.3000002 0.40000015
6.3400002 8.3000002 0.44000015
6.3400002 8.3400002 0.44000015
6.3800001 8.2600002 0.40000015
6.3800001 8.3000002 0.40000015
6.4200001 8.3400002 0.40000015
6.4200001 8.3400002 0.44000015
6.3000002 8.3800001 0.44000015
6.46 8.3400002 0.40000015
6.46 8.3000002 0.44000015
6.5 8.3000002 0.44000015
6.5 8.3400002 0.44000015
6.5799999 8.3400002 0.40000015
6.54 8.3000002 0.44000015
6.5799999 8.3400002 0.44000015
6.6199999 8.3400002 0.40000015
6.6599998 8.3000002 0.40000015
6.6599998 8.3400002 0.40000015
6.6599998 8.3000002 0.44000015
6.7400002 8.2200003 0.40000015
6.7400002 8.2600002 0.40000015
6.7000003 8.3400002 0.40000015
6.7400002 8.3000002 0.40000015
6.7000003 8.3800001 0.40000015
6.7800002 8.2200003 0.40000015
6.7800002 8.2600002 0.40000015
6.7800002 8.3000002 0.40000015
6.8200002 8.4200001 0.36000016
3.5 2.1800001 0.12000015
3.98 1.2600001 0.12000015
4.1399999 1.3000001 0.60000014
3.02 3.5 0.12000015
3.6200001 2.54 0.16000016
3.6600001 7.1399999 0.56000018
3.7 7.1399999 0.56000018
3.6600001 7.1799998 0.56000018
3.7 7.1799998 0.56000018
3.7 7.2200003 0.56000018
3.7 7.2200003 0.60000014
3.6200001 7.3000002 0.56000018
3.5800002 7.3800001 0.56000018
3.6200001 7.3400002 0.56000018
3.6600001 7.2600002 0.56000018
3.7 7.2600002 0.56000018
3.7 7.3000002 0.56000018
3.6600001 7.3400002 0.56000018
3.7 7.3400002 0.56000018
3.7 7.3800001 0.56000018
4.9000001 5.8600001 0.12000015
3.78 7.1399999 0.56000018
3.74 7.1799998 0.56000018
3.78 7.1799998 0.56000018
3.8600001 7.1399999 0.56000018
3.8200002 7.2200003 0.56000018
3.8600001 7.1799998 0.56000018
3.8600001 7.2200003 0.56000018
3.9000001 7.1799998 0.52000016
3.9000001 7.1799998 0.56000018
3.9000001 7.2200003 0.56000018
3.9400001 7.1799998 0.60000014
3.98 7.1799998 0.56000018
3.98 7.2200003 0.56000018
3.74 7.3000002 0.56000018
3.78 7.3000002 0.56000018
3.74 7.3800001 0.56000018
3.78 7.3800001 0.56000018
3.8200002 7.2600002 0.56000018
3.8200002 7.3000002 0.56000018
3.8600001 7.2600002 0.56000018
3.8600001 7.3000002 0.56000018
3.74 7.4200001 0.56000018
3.74 7.46 0.56000018
3.78 7.4200001 0.52000016
3.78 7.4200001 0.56000018
3.78 7.46 0.52000016
3.9000001 7.2600002 0.52000016
3.9000001 7.2600002 0.56000018
3.9400001 7.2600002 0.56000018
3.9400001 7.3000002 0.56000018
3.9000001 7.3400002 0.56000018
3.9400001 7.3400002 0.56000018
3.9400001 7.3800001 0.56000018
3.9400001 7.3400002 0.60000014
3.98 7.2600002 0.56000018
3.98 7.3000002 0.56000018
4.02 7.2600002 0.56000018
3.98 7.3400002 0.56000018
3.98 7.3800001 0.56000018
3.9000001 7.4200001 0.56000018
3.9400001 7.4200001 0.56000018
3.1800001 8.1400003 0.12000015
3.1800001 8.1800003 0.16000016
3.22 8.1400003 0.12000015
3.22 8.1400003 0.16000016
3.26 8.1800003 0.16000016
3.3 8.1800003 0.12000015
3.3800001 8.1800003 0.12000015
3.3800001 8.1800003 0.16000016
3.4200001 8.1400003 0.16000016
3.54 8.1000004 0.12000015
3.5 8.1400003 0.12000015
3.54 8.1400003 0.16000016
3.5800002 8.1000004 0.12000015
3.5800002 8.1400003 0.16000016
3.5800002 8.1800003 0.16000016
3.6200001 8.1400003 0.16000016
3.6600001 8.1400003 0.16000016
3.6600001 8.1800003 0.12000015
3.7 8.1400003 0.16000016
3.7 8.1800003 0.16000016
3.1400001 8.2200003 0.16000016
3.1800001 8.2200003 0.16000016
3.22 8.2200003 0.16000016
3.22 8.2600002 0.16000016
3.26 8.2200003 0.16000016
3.26 8.2600002 0.12000015
3.3 8.2600002 0.16000016
3.3800001 8.2200003 0.16000016
3.3800001 8.2600002 0.16000016
3.6200001 8.2200003 0.16000016
3.6600001 8.2200003 0.16000016
3.7 8.2200003 0.12000015
3.7 8.2200003 0.16000016
3.7 8.5 0.12000015
3.7 8.54 0.12000015
3.7 8.8199997 0.12000015
3.54 8.2600002 0.20000015
3.7 8.2200003 0.20000015
3.6600001 8.3400002 0.24000016
3.7 8.3400002 0.24000016
3.7 8.3800001 0.24000016
3.7 8.4200001 0.36000016
3.6200001 8.54 0.32000014
3.5800002 8.6999998 0.36000016
3.74 8.1400003 0.12000015
3.74 8.1400003 0.16000016
3.74 8.1800003 0.16000016
3.78 8.1400003 0.16000016
3.8200002 8.1400003 0.16000016
3.8600001 8.1400003 0.12000015
3.8600001 8.1400003 0.16000016
3.9000001 8.1400003 0.12000015
3.9000001 8.1800003 0.12000015
3.9000001 8.1800003 0.16000016
3.78 8.2600002 0.16000016
3.8200002 8.2200003 0.16000016
3.8200002 8.2600002 0.16000016
3.8600001 8.2200003 0.12000015
3.8600001 8.2600002 0.12000015
3.8200002 8.3000002 0.16000016
3.8200002 8.3400002 0.16000016
3.8600001 8.3000002 0.16000016
3.8600001 8.3400002 0.16000016
3.78 8.4200001 0.12000015
3.74 8.5 0.12000015
3.74 8.5 0.16000016
3.78 8.46 0.12000015
3.78 8.5 0.12000015
3.8600001 8.3800001 0.16000016
3.8200002 8.46 0.12000015
3.8600001 8.5 0.16000016
3.9000001 8.2200003 0.12000015
3.74 8.54 0.12000015
3.78 8.54 0.12000015
3.78 8.6599998 0.16000016
3.8200002 8.5799999 0.16000016
3.8600001 8.5799999 0.16000016
3.8200002 8.6199999 0.16000016
3.8200002 8.6599998 0.16000016
3.8600001 8.6199999 0.12000015
3.8600001 8.6599998 0.16000016
3.78 8.6999998 0.16000016
3.78 8.7399998 0.12000015
3.74 8.7799997 0.12000015
3.74 8.8199997 0.12000015
3.78 8.8199997 0.12000015
3.78 8.8199997 0.16000016
3.8600001 8.8199997 0.12000015
3.9000001 8.54 0.16000016
3.9000001 8.6199999 0.12000015
3.9000001 8.6599998 0.16000016
3.9000001 8.6999998 0.12000015
3.9000001 8.7399998 0.12000015
3.9000001 8.7799997 0.12000015
3.9000001 8.8199997 0.12000015
3.74 8.3400002 0.24000016
3.78 8.3800001 0.24000016
3.74 8.3800001 0.28000015
3.74 8.4200001 0.36000016
3.74 8.4200001 0.40000015
3.78 8.4200001 0.36000016
3.78 8.4200001 0.40000015
3.78 8.5 0.36000016
3.8200002 8.4200001 0.40000015
3.74 8.5799999 0.24000016
3.78 8.54 0.24000016
3.78 8.6999998 0.24000016
4.3000002 8.8199997 0.80000013
4.2600002 8.8199997 1.0400002
4.3000002 8.8199997 1.0400002
4.3000002 8.8199997 1.0800002
3.8600001 8.8999996 0.16000016
3.8600001 8.9800005 0.12000015
3.8600001 9.0600004 0.16000016
3.8600001 9.1000004 0.12000015
3.8600001 9.1400003 0.16000016
3.9000001 8.8999996 0.16000016
3.9000001 8.9400005 0.12000015
3.9400001 8.9400005 0.16000016
3.9000001 9.0600004 0.12000015
3.9000001 9.0600004 0.16000016
3.9400001 9.0600004 0.16000016
3.9000001 8.9800005 0.20000015
3.9000001 9.0200005 0.20000015
4.3400002 8.9800005 0.44000015
4.3400002 9.0600004 0.28000015
4.3400002 9.1000004 0.24000016
4.3400002 9.0200005 0.44000015
4.1799998 8.8999996 0.64000016
4.1399999 8.9800005 0.56000018
4.1799998 8.9400005 0.64000016
4.1799998 8.9400005 0.68000013
4.1799998 8.9800005 0.68000013
4.1399999 9.0200005 0.56000018
4.1799998 9.0200005 0.52000016
4.3400002 8.9400005 0.60000014
4.3000002 8.8999996 0.80000013
4.3400002 9.1000004 0.52000016
4.3800001 8.9800005 0.16000016
4.4200001 8.9400005 0.16000016
4.3800001 9.0200005 0.16000016
4.4200001 9.0200005 0.16000016
4.3800001 8.9800005 0.20000015
4.4200001 8.9800005 0.44000015
4.4200001 8.9800005 0.48000017
4.3800001 9.0200005 0.20000015
4.3800001 9.0200005 0.24000016
4.3800001 9.0600004 0.24000016
4.4200001 9.0200005 0.24000016
4.3800001 9.0200005 0.32000014
4.3800001 9.0600004 0.28000015
4.46 9.0200005 0.20000015
4.4200001 9.0200005 0.44000015
4.4200001 9.0200005 0.48000017
4.3800001 8.9400005 0.56000018
4.3800001 8.9800005 0.52000016
4.3800001 8.9800005 0.56000018
4.4200001 8.9800005 0.52000016
4.3800001 8.9400005 0.60000014
4.3800001 8.9400005 0.64000016
4.3800001 8.9800005 0.60000014
4.4200001 8.9800005 0.60000014
4.4200001 8.9800005 0.64000016
4.4200001 9.0200005 0.64000016
4.4200001 9.0200005 0.68000013
4.2200003 8.8599997 0.88000017
4.2200003 8.8999996 0.84000015
4.2600002 8.8599997 0.84000015
4.2600002 8.8999996 0.84000015
4.2200003 8.8599997 0.96000016
4.3000002 8.8599997 0.84000015
4.3000002 8.8999996 0.84000015
4.3400002 8.8999996 0.88000017
4.3000002 8.8999996 0.92000014
4.3400002 8.8999996 0.92000014
4.2200003 8.8999996 1.0400002
4.2600002 8.8599997 1.0400002
4.3000002 8.8599997 1.0400002
4.3400002 8.8599997 1.0800002
4.3800001 8.8999996 0.92000014
4.4200001 8.8599997 0.92000014
4.5 8.9800005 0.84000015
4.3800001 8.8599997 1.0000001
4.3800001 8.8999996 1.0000001
4.4200001 9.0600004 0.84000015
4.4200001 9.1000004 0.84000015
4.54 8.8599997 0.84000015
4.5799999 8.8999996 1.1600002
6.3800001 1.9000001 0.16000016
6.2600002 3.4200001 0.28000015
6.0999999 4.5 0.28000015
6.0999999 4.5799999 0.28000015
6.0999999 4.6199999 0.28000015
6.0999999 4.6599998 0.28000015
6.1399999 4.5 0.28000015
6.1799998 4.5 0.28000015
6.2200003 4.5 0.32000014
6.2600002 4.5 0.28000015
6.1399999 4.54 0.28000015
6.1399999 4.5799999 0.28000015
6.1799998 4.54 0.28000015
6.1799998 4.5799999 0.28000015
6.1399999 4.6199999 0.28000015
6.1399999 4.6599998 0.28000015
6.1799998 4.6199999 0.28000015
6.1799998 4.6599998 0.28000015
6.2200003 4.54 0.28000015
6.2200003 4.5799999 0.28000015
6.2600002 4.54 0.28000015
6.2600002 4.5799999 0.28000015
6.2200003 4.6199999 0.28000015
6.2200003 4.6599998 0.28000015
6.2600002 4.6199999 0.28000015
6.2600002 4.6599998 0.28000015
6.0999999 4.7000003 0.28000015
6.0999999 4.7400002 0.28000015
6.0999999 4.7800002 0.28000015
6.0999999 4.8200002 0.28000015
6.0999999 4.8600001 0.28000015
6.0999999 4.9400001 0.28000015
6.0999999 4.98 0.28000015
6.1399999 4.7000003 0.28000015
6.1399999 4.7400002 0.28000015
6.1799998 4.7000003 0.28000015
6.1799998 4.7400002 0.28000015
6.1399999 4.7800002 0.28000015
6.1399999 4.8200002 0.28000015
6.1799998 4.7800002 0.28000015
6.1799998 4.8200002 0.28000015
6.2200003 4.7000003 0.28000015
6.2200003 4.7400002 0.28000015
6.2600002 4.7000003 0.28000015
6.2600002 4.7400002 0.28000015
6.2200003 4.7800002 0.28000015
6.2200003 4.8200002 0.28000015
6.2600002 4.7800002 0.28000015
6.2600002 4.8200002 0.32000014
6.1399999 4.8600001 0.28000015
6.1399999 4.9000001 0.28000015
6.1799998 4.8600001 0.28000015
6.1799998 4.9000001 0.28000015
6.1399999 4.9400001 0.28000015
6.1799998 4.9400001 0.28000015
6.1799998 4.98 0.32000014
6.2200003 4.8600001 0.28000015
6.2200003 4.9000001 0.28000015
6.2600002 4.8600001 0.32000014
6.2600002 4.9000001 0.28000015
6.2600002 4.9000001 0.32000014
6.2200003 4.9400001 0.28000015
6.2200003 4.9400001 0.32000014
6.2200003 4.98 0.32000014
6.2600002 4.9400001 0.28000015
6.2600002 4.98 0.32000014
6.1399999 3.8600001 1.2400001
6.1799998 3.8600001 1.2400001
6.2200003 3.8200002 1.2400001
6.2200003 3.8600001 1.2400001
6.2600002 3.8200002 1.2400001
6.2600002 3.8600001 1.2400001
6.1799998 3.9000001 1.1600002
6.1799998 3.9000001 1.2000002
6.1799998 3.9000001 1.2400001
6.2200003 3.9000001 1.1600002
6.2200003 3.9000001 1.2000002
6.2600002 3.9000001 1.1600002
6.2600002 3.9000001 1.2000002
6.2600002 3.9400001 1.1600002
6.2600002 3.9400001 1.2000002
6.2200003 3.9000001 1.2400001
6.2600002 3.98 1.2400001
6.1799998 4.0599999 1.1200001
6.1399999 4.0599999 1.1600002
6.1799998 4.0599999 1.2800002
6.1399999 4.1799998 1.2400001
6.1799998 4.1799998 1.2400001
6.2200003 4.1799998 1.1600002
6.2200003 4.1799998 1.2000002
6.2600002 4.1399999 1.1600002
6.2600002 4.1799998 1.1600002
6.2600002 4.1799998 1.2000002
6.2200003 4.1399999 1.2800002
6.2200003 4.1799998 1.2400001
6.2600002 4.1799998 1.2800002
6.1799998 4.0599999 1.3600001
6.1799998 4.0999999 1.3200002
6.1799998 4.0999999 1.3600001
6.1799998 4.1399999 1.3600001
6.1799998 4.1799998 1.4400002
6.2200003 4.1399999 1.3200002
6.2200003 4.1799998 1.3600001
6.2600002 4.1799998 1.3200002
6.2200003 4.1399999 1.4400002
6.2200003 4.1799998 1.4000001
6.2200003 4.1799998 1.4400002
6.1399999 4.2200003 1.1600002
6.1799998 4.2200003 1.2000002
6.1799998 4.2200003 1.2400001
6.1799998 4.3400002 1.2400001
6.2200003 4.2200003 1.1600002
6.2600002 4.2200003 1.1600002
6.2200003 4.3000002 1.2400001
6.2200003 4.3400002 1.2400001
6.2600002 4.3000002 1.2400001
6.2600002 4.3400002 1.2400001
6.1399999 4.1799998 1.6000001
6.2200003 4.0999999 1.4800001
6.2600002 4.0999999 1.4800001
6.2600002 4.0999999 1.5200001
6.2600002 4.0599999 1.6000001
6.2600002 4.0999999 1.5600002
6.2600002 4.0999999 1.6000001
6.2600002 4.1399999 1.4800001
6.2600002 4.1399999 1.5200001
6.2600002 4.1799998 1.4800001
6.2600002 4.1799998 1.5200001
6.2200003 4.1799998 1.5600002
6.2600002 4.1399999 1.5600002
6.2600002 4.1399999 1.6000001
6.2600002 4.1799998 1.5600002
6.2600002 4.1799998 1.6000001
6.2600002 4.0999999 1.6400001
6.2600002 4.0999999 1.6800002
6.2200003 4.1799998 1.6400001
6.2600002 4.1399999 1.6400001
6.2600002 4.1399999 1.6800002
6.2600002 4.1799998 1.6400001
6.2600002 4.1799998 1.6800002
6.2200003 4.1799998 1.7200001
6.2600002 4.1799998 1.7200001
6.2600002 4.2200003 1.9200002
6.1799998 4.3800001 1.2000002
6.1799998 4.3800001 1.2400001
6.2200003 4.3800001 1.2000002
6.2200003 4.4200001 1.1600002
6.2600002 4.3800001 1.2000002
6.2600002 4.3800001 1.2400001
6.3000002 3.4200001 0.28000015
6.4200001 3.46 0.32000014
6.46 3.4200001 0.28000015
6.5 3.4200001 0.28000015
6.5799999 3.4200001 0.28000015
6.5799999 3.6200001 0.80000013
6.54 3.6600001 0.80000013
6.6199999 3.4200001 0.28000015
6.6599998 3.4200001 0.28000015
6.7400002 3.46 0.32000014
6.8200002 3.4200001 0.28000015
6.9000001 3.4200001 0.32000014
6.9000001 3.46 0.28000015
6.9400001 3.4200001 0.24000016
6.9400001 3.4200001 0.28000015
6.9400001 3.46 0.28000015
6.9400001 3.46 0.32000014
6.98 3.46 0.32000014
6.98 3.5 0.32000014
6.98 3.54 0.36000016
6.98 3.5800002 0.32000014
6.98 3.5800002 0.36000016
6.5 3.6200001 0.88000017
6.46 3.6200001 0.92000014
6.46 3.6600001 0.88000017
6.5 3.6600001 0.88000017
6.5 3.7 0.88000017
6.46 3.7 0.92000014
6.5 3.7 0.92000014
6.54 3.6200001 0.84000015
6.54 3.6600001 0.84000015
6.5799999 4.3400002 0.48000017
6.46 4.3000002 0.52000016
6.46 4.3400002 0.56000018
6.5 4.3400002 0.56000018
6.5 4.3400002 0.64000016
6.5799999 4.2200003 0.56000018
6.5799999 4.2600002 0.52000016
6.54 4.3000002 0.56000018
6.54 4.3400002 0.52000016
6.54 4.3400002 0.56000018
6.5799999 4.3000002 0.56000018
6.5799999 4.3400002 0.52000016
6.5799999 4.3400002 0.56000018
6.7000003 3.74 0.44000015
6.7400002 3.78 0.80000013
6.7400002 3.8200002 0.76000017
6.7400002 3.8200002 0.80000013
6.8200002 3.8600001 0.56000018
6.8600001 3.8600001 0.56000018
6.9000001 3.8600001 0.56000018
6.7800002 3.8600001 0.80000013
6.8200002 3.9000001 0.56000018
6.8200002 3.9400001 0.56000018
6.8200002 3.98 0.56000018
6.8200002 4.02 0.56000018
6.8600001 3.9000001 0.52000016
6.8600001 3.9000001 0.56000018
6.8600001 3.9400001 0.52000016
6.8600001 3.9400001 0.56000018
6.9000001 3.9400001 0.52000016
6.8600001 3.98 0.52000016
6.8600001 3.98 0.56000018
6.8600001 4.02 0.56000018
6.9000001 3.98 0.52000016
6.9000001 4.02 0.56000018
6.6199999 4.3400002 0.44000015
6.6199999 4.3400002 0.48000017
6.6599998 4.3000002 0.44000015
6.6599998 4.3000002 0.48000017
6.6599998 4.3400002 0.44000015
6.7000003 4.3400002 0.40000015
6.7400002 4.3000002 0.40000015
6.7400002 4.3400002 0.36000016
6.7400002 4.3400002 0.40000015
6.7000003 4.3000002 0.44000015
6.7000003 4.3000002 0.48000017
6.7000003 4.3400002 0.44000015
6.7800002 4.3000002 0.40000015
6.7800002 4.3000002 0.44000015
6.9000001 4.3000002 0.48000017
6.6199999 4.1399999 0.56000018
6.6199999 4.1799998 0.56000018
6.6599998 4.1399999 0.56000018
6.6599998 4.1799998 0.56000018
6.7000003 4.1399999 0.56000018
6.7000003 4.1799998 0.56000018
6.7400002 4.1399999 0.56000018
6.7400002 4.1799998 0.56000018
6.7000003 4.0599999 0.80000013
6.7000003 4.0999999 0.80000013
6.7400002 4.0999999 0.80000013
6.6199999 4.2200003 0.56000018
6.6199999 4.2600002 0.56000018
6.6599998 4.2200003 0.56000018
6.6599998 4.2600002 0.52000016
6.6599998 4.2600002 0.56000018
6.6199999 4.3000002 0.52000016
6.6199999 4.3000002 0.56000018
6.6199999 4.3400002 0.52000016
6.6599998 4.3000002 0.52000016
6.7000003 4.2200003 0.56000018
6.7000003 4.2600002 0.56000018
6.7400002 4.2200003 0.56000018
6.7400002 4.2600002 0.56000018
6.7000003 4.3000002 0.52000016
6.7400002 4.3000002 0.52000016
6.7400002 4.3000002 0.56000018
6.7800002 4.0999999 0.56000018
6.8200002 4.0599999 0.56000018
6.8200002 4.0999999 0.56000018
6.7800002 4.1399999 0.56000018
6.7800002 4.1799998 0.56000018
6.8200002 4.1399999 0.56000018
6.8200002 4.1799998 0.56000018
6.8600001 4.0999999 0.56000018
6.9000001 4.0999999 0.52000016
6.9000001 4.0999999 0.56000018
6.9000001 4.0599999 0.60000014
6.8600001 4.1399999 0.52000016
6.8600001 4.1399999 0.56000018
6.8600001 4.1799998 0.56000018
6.9000001 4.1399999 0.52000016
6.7800002 4.0999999 0.80000013
6.7800002 4.1399999 0.76000017
6.8200002 4.1399999 0.76000017
6.8200002 4.1399999 0.80000013
6.9000001 4.0599999 0.72000015
6.9000001 4.0599999 0.76000017
6.9000001 4.0999999 0.76000017
6.8600001 4.1399999 0.76000017
6.7800002 4.2200003 0.56000018
6.7800002 4.2600002 0.56000018
6.8200002 4.2200003 0.56000018
6.8200002 4.2600002 0.56000018
6.7800002 4.3000002 0.56000018
6.8200002 4.3000002 0.56000018
6.8600001 4.2200003 0.56000018
6.9000001 4.2600002 0.52000016
6.8600001 4.3000002 0.52000016
6.9000001 4.3000002 0.52000016
6.3000002 4.5 0.28000015
6.3400002 4.5 0.28000015
6.3800001 4.5 0.32000014
6.4200001 4.5 0.32000014
6.3000002 4.54 0.28000015
6.3000002 4.5799999 0.28000015
6.3400002 4.54 0.28000015
6.3400002 4.5799999 0.28000015
6.3000002 4.6199999 0.28000015
6.3000002 4.6599998 0.28000015
6.3400002 4.6199999 0.28000015
6.3800001 4.54 0.32000014
6.3800001 4.5799999 0.32000014
6.4200001 4.54 0.32000014
6.4200001 4.5799999 0.28000015
6.4200001 4.5799999 0.32000014
6.3800001 4.6199999 0.28000015
6.3800001 4.6599998 0.32000014
6.4200001 4.6199999 0.28000015
6.4200001 4.6599998 0.32000014
6.5 4.4200001 0.28000015
6.46 4.5 0.32000014
6.5 4.5 0.28000015
6.54 4.5 0.28000015
6.54 4.5 0.32000014
6.5799999 4.5 0.32000014
6.5 4.3800001 0.40000015
6.5 4.3800001 0.44000015
6.54 4.3800001 0.44000015
6.54 4.3800001 0.48000017
6.5799999 4.3800001 0.44000015
6.46 4.54 0.32000014
6.46 4.5799999 0.28000015
6.5 4.54 0.32000014
6.5 4.5799999 0.28000015
6.46 4.6199999 0.28000015
6.46 4.6599998 0.28000015
6.5 4.6199999 0.32000014
6.5 4.6599998 0.28000015
6.54 4.54 0.32000014
6.54 4.5799999 0.32000014
6.5799999 4.54 0.32000014
6.5799999 4.5799999 0.32000014
6.54 4.6199999 0.28000015
6.54 4.6599998 0.28000015
6.5799999 4.6199999 0.32000014
6.5799999 4.6599998 0.32000014
6.4200001 4.3800001 0.52000016
6.46 4.3800001 0.52000016
6.46 4.3800001 0.56000018
6.5 4.3800001 0.52000016
6.54 4.3800001 0.52000016
6.5 4.3800001 0.68000013
6.5 4.4200001 0.68000013
6.5 4.46 0.76000017
6.54 4.5 0.80000013
6.5799999 4.54 0.80000013
6.3000002 4.7000003 0.28000015
6.3000002 4.7400002 0.28000015
6.3400002 4.7000003 0.32000014
6.3400002 4.7400002 0.32000014
6.3000002 4.7800002 0.32000014
6.3000002 4.8200002 0.32000014
6.3400002 4.7800002 0.28000015
