# .PCD v0.7 - Point Cloud Data file format
VERSION 0.7
FIELDS x y z
SIZE 4 4 4
TYPE F F F
COUNT 1 1 1
WIDTH 548
HEIGHT 1
VIEWPOINT 0 0 0 1 0 0 0
POINTS 548
DATA ascii
4.6599998 3.9400001 0.64000016
4.54 3.9400001 0.80000013
4.5799999 3.9000001 0.80000013
4.6199999 3.9400001 0.72000015
4.6599998 3.9400001 0.72000015
4.6199999 3.9400001 0.80000013
4.6599998 3.9000001 0.80000013
4.6599998 3.9400001 0.76000017
4.6599998 3.9400001 0.80000013
4.6199999 3.98 0.68000013
4.6599998 3.98 0.68000013
4.6599998 3.98 0.72000015
4.6599998 3.98 0.76000017
4.6599998 3.98 0.80000013
4.7800002 4.02 0.48000017
4.8200002 4.02 0.44000015
4.8200002 4.02 0.48000017
4.8600001 4.02 0.48000017
4.9000001 3.98 0.48000017
4.9000001 4.02 0.44000015
4.9000001 4.02 0.48000017
4.9400001 3.9400001 0.48000017
4.98 3.9000001 0.44000015
4.98 3.9000001 0.48000017
4.98 3.9400001 0.44000015
4.98 3.9400001 0.48000017
4.9400001 4.02 0.40000015
4.98 3.98 0.40000015
4.98 4.02 0.40000015
4.9400001 3.98 0.48000017
4.9400001 4.02 0.44000015
4.98 3.98 0.44000015
4.7400002 3.8600001 0.72000015
4.7400002 3.8200002 0.76000017
4.7400002 3.8200002 0.80000013
4.7400002 3.8600001 0.76000017
4.7400002 3.8600001 0.80000013
4.7800002 3.8600001 0.72000015
4.8200002 3.8600001 0.72000015
4.7800002 3.8600001 0.76000017
4.7000003 3.98 0.60000014
4.7000003 3.98 0.64000016
4.7400002 3.98 0.64000016
4.7400002 4.02 0.60000014
4.7800002 3.9400001 0.64000016
4.8200002 3.9400001 0.60000014
4.8200002 3.9400001 0.64000016
4.7800002 4.02 0.52000016
4.7800002 4.02 0.56000018
4.8200002 3.98 0.56000018
4.8200002 4.02 0.52000016
4.8200002 4.02 0.56000018
4.7800002 3.98 0.64000016
4.8200002 3.98 0.60000014
4.7000003 3.9400001 0.72000015
4.7400002 3.9400001 0.68000013
4.7400002 3.9400001 0.72000015
4.7000003 3.9000001 0.80000013
4.7000003 3.9400001 0.76000017
4.7400002 3.9000001 0.76000017
4.7400002 3.9000001 0.80000013
4.7400002 3.9400001 0.76000017
4.7000003 3.98 0.68000013
4.7000003 3.98 0.72000015
4.7800002 3.9000001 0.72000015
4.7800002 3.9400001 0.68000013
4.7800002 3.9400001 0.72000015
4.8200002 3.9000001 0.68000013
4.8200002 3.9400001 0.68000013
4.9000001 3.8600001 0.56000018
4.8600001 3.8600001 0.64000016
4.8600001 3.8600001 0.68000013
4.8600001 3.9400001 0.56000018
4.9000001 3.9000001 0.56000018
4.9000001 3.9400001 0.56000018
4.8600001 3.9000001 0.60000014
4.8600001 3.9000001 0.64000016
4.8600001 3.9400001 0.60000014
4.8600001 3.9400001 0.64000016
4.8600001 3.98 0.52000016
4.8600001 3.98 0.56000018
4.8600001 4.02 0.52000016
4.9000001 3.98 0.52000016
4.9400001 3.9000001 0.52000016
4.9400001 3.9000001 0.56000018
4.9400001 3.9400001 0.52000016
4.9400001 3.9400001 0.56000018
4.9000001 4.0599999 0.24000016
4.9000001 4.0599999 0.32000014
4.9400001 4.0599999 0.24000016
4.98 4.0999999 0.20000015
4.98 4.0999999 0.24000016
4.9400001 4.0599999 0.28000015
4.9400001 4.0599999 0.32000014
4.9400001 4.0999999 0.32000014
4.98 4.0599999 0.28000015
4.98 4.0599999 0.32000014
4.8600001 4.0599999 0.36000016
4.8600001 4.0599999 0.40000015
4.9000001 4.0599999 0.36000016
4.9000001 4.0599999 0.40000015
4.9000001 4.0599999 0.44000015
4.9400001 4.0599999 0.36000016
4.9400001 4.0599999 0.40000015
4.98 4.0599999 0.36000016
4.4200001 3.8600001 1.0000001
4.46 3.8600001 1.0000001
4.5 3.9000001 0.88000017
4.5 3.9000001 0.92000014
4.46 3.9000001 1.0000001
4.5 3.9000001 1.0000001
4.5 3.9400001 1.0000001
4.5799999 3.78 0.96000016
4.5799999 3.8200002 0.96000016
4.5799999 3.8600001 0.92000014
4.5799999 3.8600001 0.96000016
4.6199999 3.78 0.96000016
4.6599998 3.78 0.92000014
4.6599998 3.8200002 0.88000017
4.6599998 3.8600001 0.88000017
4.6199999 3.8200002 0.92000014
4.6199999 3.8200002 0.96000016
4.6199999 3.8600001 0.92000014
4.6599998 3.8200002 0.92000014
4.54 3.78 1.0000001
4.5799999 3.78 1.0000001
4.54 3.74 1.0800002
4.54 3.78 1.0800002
4.54 3.8600001 1.0000001
4.54 3.8600001 1.0400002
4.5799999 3.8200002 1.0000001
4.5799999 3.8200002 1.0400002
4.6199999 3.8200002 1.0400002
4.54 3.9000001 0.88000017
4.5799999 3.9000001 0.84000015
4.5799999 3.9000001 0.88000017
4.5799999 3.9400001 0.84000015
4.54 3.9000001 0.96000016
4.5799999 3.9000001 0.96000016
4.6199999 3.9000001 0.84000015
4.6199999 3.9000001 0.88000017
4.6599998 3.9000001 0.84000015
4.6199999 3.9000001 0.92000014
4.7000003 3.8200002 0.84000015
4.7000003 3.8600001 0.84000015
4.7400002 3.8200002 0.84000015
4.7400002 3.8200002 0.88000017
4.7400002 3.8600001 0.84000015
4.7000003 3.8200002 0.92000014
4.7000003 3.9000001 0.84000015
5.1399999 3.9400001 0.16000016
5.02 4.0999999 0.16000016
5.0599999 3.9400001 0.32000014
5.02 4.02 0.32000014
5.0599999 4.02 0.28000015
5.0599999 4.02 0.32000014
5.0999999 3.9400001 0.24000016
5.0999999 3.9400001 0.28000015
5.0999999 4.02 0.24000016
5.1399999 3.98 0.20000015
5.1399999 3.98 0.24000016
5.0999999 3.98 0.28000015
5.0999999 3.98 0.32000014
5.0999999 4.02 0.28000015
5.02 3.9400001 0.40000015
5.0599999 3.9400001 0.36000016
5.0599999 3.9400001 0.40000015
5.02 3.98 0.40000015
5.02 4.02 0.36000016
5.02 4.02 0.40000015
5.0599999 3.98 0.36000016
5.02 4.0999999 0.20000015
5.02 4.0999999 0.24000016
5.0599999 4.0599999 0.24000016
5.0599999 4.0999999 0.20000015
5.0599999 4.0999999 0.24000016
5.02 4.0599999 0.28000015
5.02 4.0599999 0.32000014
5.02 4.0999999 0.28000015
5.0599999 4.0599999 0.28000015
5.0999999 4.0599999 0.24000016
4.5 3.6600001 0.96000016
4.54 3.6600001 1.0000001
4.54 3.7 1.0400002
4.46 3.8200002 0.80000013
4.5 3.8200002 0.76000017
4.4200001 3.8200002 0.84000015
4.4200001 3.8600001 0.88000017
4.3800001 3.8600001 0.92000014
4.3800001 3.8600001 0.96000016
4.4200001 3.8600001 0.92000014
4.4200001 3.8600001 0.96000016
4.3800001 3.8600001 1.0000001
4.4200001 3.8600001 1.0000001
4.5 3.8600001 1.0400002
4.4200001 3.9000001 0.92000014
4.46 3.9000001 0.92000014
4.46 3.9000001 0.96000016
4.5 3.9000001 0.92000014
4.5 3.9000001 0.96000016
4.46 3.9000001 1.0000001
4.5 3.9000001 1.0000001
4.54 3.8600001 0.96000016
4.54 3.78 1.0400002
4.54 3.8600001 1.0000001
4.5799999 3.8200002 1.0000001
4.54 3.9000001 0.96000016
4.54 3.9400001 0.92000014
4.5799999 3.9000001 0.96000016
4.54 3.6200001 0.76000017
4.5799999 3.6600001 0.76000017
4.5799999 3.6600001 0.80000013
4.4200001 3.6200001 0.88000017
4.8600001 3.9400001 0.16000016
4.8600001 3.98 0.16000016
4.46 3.74 0.76000017
4.46 3.78 0.76000017
4.46 3.8600001 0.80000013
4.5 3.8600001 0.80000013
4.6599998 3.9400001 0.60000014
4.6599998 3.9400001 0.64000016
4.54 3.9000001 0.72000015
4.5799999 3.9000001 0.68000013
4.5799999 3.9000001 0.72000015
4.5799999 3.9400001 0.72000015
4.54 3.9000001 0.80000013
4.5799999 3.9000001 0.76000017
4.6199999 3.9400001 0.72000015
4.8200002 3.98 0.28000015
4.7800002 4.02 0.40000015
4.7800002 4.02 0.44000015
4.8200002 4.02 0.44000015
4.8600001 3.98 0.20000015
4.8600001 3.98 0.24000016
4.8600001 4.02 0.28000015
4.8600001 4.02 0.32000014
4.9400001 4.0599999 0.20000015
4.9400001 4.0599999 0.24000016
4.98 4.0599999 0.20000015
4.98 4.0999999 0.20000015
4.98 4.0599999 0.28000015
4.4200001 3.78 0.84000015
4.4200001 3.78 0.88000017
4.3800001 3.78 0.92000014
4.4200001 3.8200002 0.84000015
4.46 3.8600001 0.84000015
4.46 3.8600001 0.88000017
4.5 3.8600001 0.84000015
4.5 3.8600001 0.88000017
4.46 3.8600001 0.92000014
4.46 3.8600001 0.96000016
4.54 3.8600001 0.88000017
4.54 3.9000001 0.84000015
5.02 4.0999999 0.16000016
5.02 4.0999999 0.20000015
4.6599998 3.9400001 0.80000013
4.8200002 4.02 0.48000017
4.9400001 3.8600001 0.48000017
4.98 3.8600001 0.44000015
4.9000001 4.02 0.44000015
4.9000001 4.02 0.48000017
4.98 3.9000001 0.40000015
4.98 3.9400001 0.40000015
4.9400001 3.9000001 0.48000017
4.9400001 3.9400001 0.44000015
4.9400001 3.9400001 0.48000017
4.98 3.9000001 0.44000015
4.98 3.9000001 0.48000017
4.98 3.9400001 0.44000015
4.9400001 4.02 0.40000015
4.98 3.98 0.40000015
4.98 4.02 0.40000015
4.9400001 3.98 0.44000015
4.9400001 3.98 0.48000017
4.9400001 4.02 0.44000015
4.9400001 4.02 0.48000017
4.98 3.98 0.44000015
4.8200002 3.8200002 0.64000016
4.8200002 3.8600001 0.64000016
4.7400002 3.78 0.72000015
4.7000003 3.8200002 0.80000013
4.7000003 3.8600001 0.80000013
4.7400002 3.8200002 0.76000017
4.7400002 3.8200002 0.80000013
4.7400002 3.8600001 0.76000017
4.7800002 3.8200002 0.68000013
4.7800002 3.8200002 0.72000015
4.7800002 3.8600001 0.68000013
4.7800002 3.8600001 0.72000015
4.8200002 3.8200002 0.68000013
4.8200002 3.8600001 0.68000013
4.7800002 3.9400001 0.64000016
4.8200002 3.9000001 0.64000016
4.8200002 3.9400001 0.64000016
4.7800002 4.02 0.56000018
4.8200002 4.02 0.52000016
4.8200002 4.02 0.56000018
4.7800002 3.98 0.64000016
4.8200002 3.98 0.60000014
4.8200002 3.98 0.64000016
4.7400002 3.9000001 0.72000015
4.7400002 3.9400001 0.68000013
4.7400002 3.9400001 0.72000015
4.7000003 3.9000001 0.76000017
4.7000003 3.9000001 0.80000013
4.7000003 3.9400001 0.76000017
4.7000003 3.9400001 0.80000013
4.7400002 3.9000001 0.76000017
4.7000003 3.98 0.68000013
4.7000003 3.98 0.72000015
4.7400002 3.98 0.68000013
4.7000003 3.98 0.76000017
4.7800002 3.9000001 0.68000013
4.7800002 3.9000001 0.72000015
4.7800002 3.9400001 0.68000013
4.8200002 3.9000001 0.68000013
4.8600001 3.8200002 0.56000018
4.9000001 3.8200002 0.56000018
4.9000001 3.8600001 0.52000016
4.9000001 3.8600001 0.56000018
4.8600001 3.8600001 0.60000014
4.8600001 3.9000001 0.56000018
4.9000001 3.9000001 0.52000016
4.9000001 3.9000001 0.56000018
4.9000001 3.9400001 0.52000016
4.9000001 3.9400001 0.56000018
4.8600001 3.9000001 0.60000014
4.8600001 3.9400001 0.60000014
4.8600001 3.98 0.52000016
4.8600001 3.98 0.56000018
4.8600001 4.02 0.52000016
4.9000001 3.98 0.52000016
4.9000001 4.02 0.52000016
4.8600001 3.98 0.60000014
4.9400001 3.9000001 0.52000016
4.9400001 3.9400001 0.52000016
4.9400001 3.98 0.52000016
4.9400001 4.0599999 0.32000014
4.9400001 4.0999999 0.32000014
4.98 4.0599999 0.32000014
4.98 4.0999999 0.28000015
4.98 4.0999999 0.32000014
4.9000001 4.0599999 0.40000015
4.8600001 4.0599999 0.48000017
4.9400001 4.0599999 0.36000016
4.9400001 4.0599999 0.40000015
4.98 4.0599999 0.36000016
4.5 3.8600001 1.0400002
4.5 3.9000001 1.0000001
4.5799999 3.8600001 0.96000016
4.6199999 3.8600001 0.88000017
4.6599998 3.8200002 0.88000017
4.6599998 3.8600001 0.88000017
4.6199999 3.8200002 0.92000014
4.6199999 3.8600001 0.92000014
4.6199999 3.8600001 0.96000016
4.6599998 3.8200002 0.92000014
4.54 3.78 1.0400002
4.5799999 3.78 1.0400002
4.54 3.74 1.0800002
4.54 3.78 1.0800002
4.54 3.8200002 1.0000001
4.54 3.8600001 1.0000001
4.5799999 3.8200002 1.0000001
4.5799999 3.8200002 1.0400002
4.5799999 3.8600001 1.0000001
4.54 3.8200002 1.0800002
4.5799999 3.9000001 0.88000017
4.54 3.9000001 0.92000014
4.54 3.9000001 0.96000016
4.5799999 3.9000001 0.92000014
4.5799999 3.9000001 0.96000016
4.6199999 3.9000001 0.88000017
4.6199999 3.9400001 0.84000015
4.6199999 3.9400001 0.88000017
4.6599998 3.9000001 0.84000015
4.6599998 3.9000001 0.88000017
4.6599998 3.9400001 0.84000015
4.54 3.9000001 1.0000001
4.7000003 3.8200002 0.84000015
4.7000003 3.8600001 0.84000015
5.02 3.9000001 0.32000014
5.0599999 3.9000001 0.28000015
5.0599999 3.9400001 0.32000014
5.0599999 3.98 0.28000015
5.0599999 3.98 0.32000014
5.0599999 4.02 0.28000015
5.0599999 4.02 0.32000014
5.0999999 3.9400001 0.24000016
5.0999999 3.9400001 0.28000015
5.0999999 3.9400001 0.32000014
5.0999999 4.02 0.24000016
5.0999999 3.98 0.28000015
5.0999999 3.98 0.32000014
5.0999999 4.02 0.28000015
5.02 3.9000001 0.36000016
5.02 3.9000001 0.40000015
5.02 3.9400001 0.40000015
5.0599999 3.9400001 0.36000016
5.02 3.98 0.36000016
5.02 3.98 0.40000015
5.02 4.02 0.36000016
5.02 4.02 0.40000015
5.0599999 3.98 0.36000016
5.0599999 4.0999999 0.24000016
5.02 4.0599999 0.32000014
5.02 4.0999999 0.28000015
5.02 4.0999999 0.32000014
5.0599999 4.0599999 0.28000015
5.0599999 4.0599999 0.32000014
5.0599999 4.0999999 0.28000015
5.0999999 4.0599999 0.28000015
5.0999999 4.0999999 0.28000015
4.5799999 3.7 0.72000015
4.54 3.7 0.76000017
4.6199999 3.7 0.72000015
4.6199999 3.7 0.76000017
4.6199999 3.7 0.80000013
4.46 3.7 0.84000015
4.5 3.6600001 0.88000017
4.5 3.7 0.84000015
4.54 3.6600001 0.96000016
4.54 3.7 1.0400002
4.5 3.74 0.76000017
4.5 3.74 0.80000013
4.54 3.74 0.72000015
4.54 3.9400001 0.76000017
4.5799999 3.9400001 0.76000017
4.5799999 3.9400001 0.80000013
4.6199999 3.9400001 0.76000017
4.6199999 3.9400001 0.80000013
4.6599998 3.9400001 0.76000017
4.6599998 3.9400001 0.80000013
4.6599998 3.98 0.68000013
4.7000003 3.9000001 0.80000013
4.7000003 3.98 0.72000015
4.3400002 3.78 0.92000014
4.3800001 3.74 0.88000017
4.4200001 3.74 0.84000015
4.3800001 3.8600001 0.96000016
4.4200001 3.9000001 0.92000014
4.5 3.9400001 0.84000015
4.46 3.9000001 0.96000016
4.4200001 3.9000001 1.0000001
4.54 3.8600001 1.0400002
4.5799999 3.8200002 1.0400002
4.54 3.9000001 0.88000017
4.54 3.9400001 0.88000017
4.54 3.9000001 0.92000014
4.54 3.9000001 0.96000016
4.54 3.9400001 0.96000016
4.5799999 3.9000001 0.92000014
4.5799999 3.9000001 0.96000016
4.6199999 3.9400001 0.84000015
4.6599998 3.9400001 0.84000015
4.54 3.9000001 1.0000001
5.0999999 3.9000001 0.16000016
4.5 3.6600001 0.80000013
4.5799999 3.7 0.80000013
4.6199999 3.7 0.72000015
4.6599998 3.7 0.72000015
4.6199999 3.7 0.76000017
4.6199999 3.7 0.80000013
4.5 3.6600001 0.96000016
4.54 3.6600001 0.92000014
4.54 3.6600001 0.96000016
4.6199999 3.7 0.84000015
4.54 3.6600001 1.0000001
4.54 3.7 1.0400002
4.9400001 3.8600001 0.16000016
4.6599998 3.74 0.64000016
4.8600001 3.8200002 0.28000015
4.98 3.8600001 0.32000014
4.8600001 3.8200002 0.48000017
4.9000001 3.8200002 0.44000015
4.9000001 3.8600001 0.44000015
4.9000001 3.8600001 0.48000017
4.9400001 3.8200002 0.40000015
4.9400001 3.8600001 0.40000015
4.98 3.8600001 0.36000016
4.9400001 3.8600001 0.44000015
4.98 3.9400001 0.32000014
4.9400001 3.9000001 0.40000015
4.9400001 3.9400001 0.40000015
4.98 3.9000001 0.36000016
4.98 3.9000001 0.40000015
4.9400001 3.9400001 0.44000015
4.7800002 3.78 0.64000016
4.8200002 3.78 0.60000014
4.7800002 3.8600001 0.64000016
4.8200002 3.8200002 0.60000014
4.8200002 3.8600001 0.60000014
4.7400002 3.78 0.68000013
4.7400002 3.78 0.72000015
4.7000003 3.74 0.76000017
4.7000003 3.74 0.80000013
4.7000003 3.78 0.80000013
4.7400002 3.8200002 0.72000015
4.7000003 3.8200002 0.76000017
4.7000003 3.8200002 0.80000013
4.7000003 3.8600001 0.76000017
4.7000003 3.8600001 0.80000013
4.7400002 3.8200002 0.76000017
4.7400002 3.8600001 0.76000017
4.7800002 3.78 0.68000013
4.7800002 3.8200002 0.68000013
4.8200002 3.9000001 0.56000018
4.8600001 3.78 0.52000016
4.8600001 3.8200002 0.52000016
4.8600001 3.8600001 0.52000016
4.8600001 3.8600001 0.56000018
4.8600001 3.9000001 0.52000016
4.3400002 3.78 0.92000014
4.3800001 3.8600001 1.0000001
4.5799999 3.74 0.96000016
4.5799999 3.78 0.96000016
4.5799999 3.8200002 0.96000016
4.6199999 3.74 0.88000017
4.6599998 3.74 0.84000015
4.6599998 3.78 0.84000015
4.6599998 3.78 0.88000017
4.6199999 3.74 0.92000014
4.6199999 3.78 0.92000014
4.6599998 3.8200002 0.84000015
4.6599998 3.8200002 0.88000017
4.54 3.74 1.0400002
4.54 3.78 1.0000001
4.54 3.78 1.0400002
4.5799999 3.78 1.0000001
5.02 3.8600001 0.24000016
5.0599999 3.8600001 0.20000015
5.02 3.8600001 0.28000015
5.02 3.8600001 0.32000014
5.0599999 3.9000001 0.24000016
5.0599999 3.9400001 0.24000016
5.02 3.9000001 0.32000014
5.02 3.9400001 0.32000014
5.0599999 3.9000001 0.28000015
5.0599999 3.9000001 0.32000014
5.0599999 3.9400001 0.28000015
5.02 3.98 0.32000014
5.0599999 3.98 0.28000015
5.0999999 3.9000001 0.20000015
5.0999999 3.9400001 0.20000015
5.0999999 3.9400001 0.24000016
5.0999999 3.98 0.24000016
5.02 3.9000001 0.36000016
5.02 3.9400001 0.36000016
