# .PCD v0.7 - Point Cloud Data file format
VERSION 0.7
FIELDS x y z
SIZE 4 4 4
TYPE F F F
COUNT 1 1 1
WIDTH 1659
HEIGHT 1
VIEWPOINT 0 0 0 1 0 0 0
POINTS 1659
DATA ascii
2.1000001 3.0599999 -0.039999846
1.98 3.0599999 0.040000156
2.0599999 3.02 0.040000156
2.0599999 3.0599999 0.040000156
2.1400001 2.46 1.5422702e-07
2.1800001 2.46 1.5422702e-07
2.1800001 2.5 -0.039999846
2.1800001 2.54 -0.079999849
2.22 2.5800002 -0.079999849
2.26 2.5800002 -0.039999846
2.1400001 2.6600001 1.5422702e-07
2.1800001 2.6600001 1.5422702e-07
2.1400001 2.74 1.5422702e-07
2.22 2.74 -0.079999849
2.22 2.7 -0.039999846
2.22 2.74 -0.039999846
2.22 2.74 1.5422702e-07
2.4200001 2.54 -0.079999849
2.3400002 2.6600001 -0.039999846
2.3 2.74 -0.079999849
2.3400002 2.74 -0.039999846
2.4200001 2.6600001 1.5422702e-07
2.1800001 2.8600001 1.5422702e-07
2.22 2.78 -0.039999846
2.22 2.8200002 1.5422702e-07
2.26 2.9000001 1.5422702e-07
2.1400001 2.9400001 -0.039999846
2.1800001 2.9400001 1.5422702e-07
2.22 2.98 -0.039999846
2.26 3.02 1.5422702e-07
2.3 2.78 -0.039999846
2.3 2.78 1.5422702e-07
2.3400002 2.8200002 -0.039999846
2.3800001 2.78 -0.039999846
2.3800001 2.8600001 -0.039999846
2.4200001 2.9000001 -0.039999846
2.3 2.9000001 0.040000156
2.3 3.0599999 -0.039999846
2.3400002 3.02 1.5422702e-07
2.3800001 2.9400001 -0.039999846
2.4200001 2.9400001 -0.039999846
1.9000001 3.1400001 1.5422702e-07
1.9000001 3.1800001 1.5422702e-07
1.9400001 3.1800001 1.5422702e-07
1.9400001 3.22 1.5422702e-07
1.8200001 3.1000001 0.040000156
1.8200001 3.1400001 0.040000156
1.9000001 3.1400001 0.080000155
1.9000001 3.22 0.040000156
1.9400001 3.1800001 0.040000156
1.8200001 3.26 1.5422702e-07
1.9000001 3.3 1.5422702e-07
1.9400001 3.26 -0.039999846
1.9400001 3.26 1.5422702e-07
1.9400001 3.3 -0.039999846
1.9400001 3.3800001 1.5422702e-07
1.8200001 3.26 0.040000156
1.9000001 3.26 0.040000156
1.9000001 3.3 0.040000156
1.9000001 3.3400002 0.040000156
1.9000001 3.3400002 0.080000155
1.9400001 3.3800001 0.040000156
1.98 3.1000001 1.5422702e-07
1.98 3.1400001 1.5422702e-07
1.98 3.22 1.5422702e-07
2.02 3.1800001 1.5422702e-07
2.0599999 3.1000001 -0.039999846
2.0599999 3.1000001 1.5422702e-07
2.1000001 3.1400001 1.5422702e-07
1.98 3.26 -0.039999846
1.98 3.3 -0.039999846
1.98 3.3400002 1.5422702e-07
2.1000001 3.3800001 1.5422702e-07
1.98 3.3 0.040000156
2.02 3.3800001 0.040000156
1.9000001 3.4200001 0.040000156
2.0599999 3.5 -0.039999846
2.1000001 3.4200001 0.040000156
2.1800001 3.1400001 1.5422702e-07
2.1800001 3.1800001 1.5422702e-07
2.26 3.1400001 1.5422702e-07
2.22 3.26 -0.039999846
2.22 3.3 1.5422702e-07
2.22 3.26 0.040000156
2.3400002 3.1400001 -0.039999846
2.3400002 3.1800001 1.5422702e-07
2.4200001 3.1400001 1.5422702e-07
2.3800001 3.22 -0.039999846
2.4200001 3.1800001 -0.039999846
2.3400002 3.3400002 1.5422702e-07
2.3400002 3.3800001 -0.039999846
2.4200001 3.3 0.040000156
2.1800001 3.4200001 -0.039999846
2.1800001 3.46 1.5422702e-07
2.1800001 3.54 1.5422702e-07
2.1800001 3.4200001 0.12000015
2.22 3.46 0.040000156
2.3400002 3.46 -0.079999849
2.3 3.4200001 -0.039999846
2.3400002 3.4200001 -0.039999846
2.3400002 3.46 -0.039999846
2.3800001 3.4200001 1.5422702e-07
2.3800001 3.46 1.5422702e-07
2.4200001 3.46 1.5422702e-07
2.3800001 3.5 -0.039999846
2.3 3.46 0.040000156
2.3400002 3.5 0.040000156
2.3800001 3.46 0.040000156
2.3800001 3.5 0.040000156
2.0599999 3.4200001 0.28000015
2.1000001 3.46 0.28000015
2.0599999 3.54 0.32000014
2.1000001 3.54 0.32000014
2.02 3.5800002 0.32000014
2.02 3.6200001 0.32000014
2.0599999 3.5800002 0.32000014
2.1000001 3.6200001 0.32000014
2.0599999 3.6600001 0.32000014
2.0599999 3.7 0.32000014
2.1800001 3.4200001 0.24000016
2.1400001 3.4200001 0.28000015
2.1400001 3.46 0.32000014
2.1800001 3.4200001 0.28000015
2.1800001 3.46 0.32000014
2.1400001 3.5 0.32000014
2.1400001 3.54 0.32000014
2.1800001 3.54 0.32000014
2.26 3.4200001 0.20000015
2.26 3.46 0.20000015
2.22 3.4200001 0.32000014
2.22 3.46 0.32000014
2.26 3.46 0.32000014
2.26 3.5 0.32000014
2.26 3.54 0.32000014
2.1400001 3.4200001 0.40000015
2.1400001 3.46 0.36000016
2.1400001 3.5800002 0.32000014
2.1400001 3.6200001 0.32000014
2.1800001 3.5800002 0.32000014
2.1800001 3.6200001 0.32000014
2.1400001 3.6600001 0.32000014
2.1400001 3.7 0.32000014
2.1800001 3.6600001 0.32000014
2.22 3.5800002 0.32000014
2.22 3.6200001 0.32000014
2.26 3.5800002 0.32000014
2.22 3.6600001 0.32000014
2.22 3.7 0.32000014
2.26 3.6600001 0.32000014
2.3 3.4200001 0.28000015
2.3 3.4200001 0.32000014
2.3400002 3.4200001 0.28000015
2.3400002 3.4200001 0.32000014
2.3400002 3.46 0.32000014
2.3 3.5 0.28000015
2.3 3.54 0.28000015
2.3 3.54 0.32000014
2.3800001 3.46 0.32000014
2.4200001 3.4200001 0.32000014
2.4200001 3.46 0.32000014
2.3800001 3.5 0.32000014
2.3800001 3.54 0.32000014
2.4200001 3.5 0.32000014
2.4200001 3.54 0.32000014
2.3 3.5800002 0.32000014
2.3 3.6200001 0.32000014
2.3400002 3.5800002 0.32000014
2.3400002 3.6200001 0.32000014
2.3 3.6600001 0.32000014
2.3 3.7 0.32000014
2.3400002 3.6600001 0.28000015
2.3400002 3.6600001 0.32000014
2.3400002 3.7 0.32000014
2.3800001 3.5800002 0.28000015
2.3800001 3.6600001 0.32000014
2.3800001 3.7 0.32000014
2.4200001 3.6600001 0.32000014
2.4200001 3.7 0.32000014
1.1800001 3.02 0.84000015
1.22 3.02 0.84000015
1.22 3.0599999 0.88000017
1.1800001 3.1000001 0.84000015
1.1800001 3.1400001 0.84000015
1.1800001 3.1400001 0.88000017
1.22 3.1000001 0.88000017
1.1800001 3.1000001 0.92000014
1.1800001 3.1000001 0.96000016
1.1800001 3.1400001 0.92000014
1.1800001 3.1400001 0.96000016
1.22 3.1000001 0.92000014
1.22 3.1400001 0.96000016
1.1800001 3.1800001 0.88000017
1.1800001 3.22 0.84000015
1.1800001 3.22 0.96000016
1.22 3.1800001 0.92000014
1.22 3.22 0.96000016
1.1800001 3.1800001 1.0000001
1.1800001 3.22 1.0000001
1.22 3.1800001 1.0000001
1.2600001 3.1400001 1.0000001
1.1800001 3.26 0.84000015
1.1800001 3.26 0.88000017
1.1800001 3.3 0.84000015
1.1800001 3.3 0.88000017
1.1800001 3.26 0.96000016
1.1800001 3.3 0.96000016
1.22 3.26 0.96000016
1.22 3.3 0.96000016
1.1800001 3.3400002 0.84000015
1.1800001 3.3800001 0.84000015
1.1800001 3.3800001 0.88000017
1.1800001 3.3400002 0.92000014
1.1800001 3.3400002 0.96000016
1.1800001 3.3800001 0.92000014
1.1800001 3.3800001 0.96000016
1.1800001 3.26 1.0000001
1.1800001 3.26 1.0400002
1.1800001 3.3 1.0000001
1.1800001 3.3 1.0400002
1.1800001 3.26 1.0800002
1.1800001 3.3 1.1200001
1.22 3.26 1.0800002
1.22 3.26 1.1200001
1.22 3.3 1.1200001
1.1800001 3.3400002 1.0000001
1.1800001 3.3400002 1.0400002
1.1800001 3.3800001 1.0000001
1.1800001 3.3800001 1.0400002
1.22 3.3400002 1.0000001
1.22 3.3800001 1.0400002
1.1800001 3.3400002 1.0800002
1.1800001 3.3800001 1.1200001
1.22 3.3400002 1.1200001
1.22 3.3800001 1.0800002
1.22 3.3800001 1.1200001
1.1800001 3.26 1.1600002
1.1800001 3.3 1.2000002
1.22 3.26 1.1600002
1.22 3.3 1.1600002
1.1800001 3.3400002 1.1600002
1.1800001 3.3800001 1.1600002
1.1800001 3.3800001 1.2000002
1.22 3.3800001 1.1600002
1.2600001 3.3 1.1600002
1.1800001 3.4200001 0.84000015
1.1800001 3.4200001 0.88000017
1.1800001 3.46 0.88000017
1.22 3.4200001 0.88000017
1.22 3.46 0.88000017
1.1800001 3.4200001 0.92000014
1.1800001 3.46 0.92000014
1.1800001 3.46 0.96000016
1.1800001 3.54 0.84000015
1.1800001 3.54 0.88000017
1.22 3.5 0.88000017
1.22 3.54 0.84000015
1.22 3.54 0.88000017
1.1800001 3.5 0.92000014
1.1800001 3.54 0.92000014
1.1800001 3.54 0.96000016
1.22 3.5 0.96000016
1.1800001 3.4200001 1.0000001
1.1800001 3.4200001 1.0400002
1.22 3.4200001 1.0000001
1.22 3.46 1.0400002
1.22 3.4200001 1.0800002
1.22 3.4200001 1.1200001
1.22 3.46 1.0800002
1.22 3.46 1.1200001
1.1800001 3.5 1.0400002
1.1800001 3.54 1.0400002
1.22 3.5 1.0000001
1.22 3.5 1.0400002
1.22 3.54 1.0000001
1.1800001 3.5 1.0800002
1.1800001 3.54 1.0800002
1.22 3.54 1.0800002
1.22 3.54 1.1200001
1.2600001 3.4200001 1.0800002
1.2600001 3.46 1.0800002
1.2600001 3.5 1.1200001
1.1800001 3.5800002 0.88000017
1.1800001 3.6200001 0.84000015
1.1800001 3.6200001 0.88000017
1.22 3.5800002 0.84000015
1.1800001 3.5800002 0.92000014
1.1800001 3.5800002 0.96000016
1.1800001 3.6200001 0.92000014
1.1800001 3.6200001 0.96000016
1.22 3.6200001 0.96000016
1.1800001 3.6600001 0.84000015
1.1800001 3.6600001 0.88000017
1.1800001 3.7 0.84000015
1.1800001 3.7 0.88000017
1.1800001 3.6600001 0.92000014
1.22 3.6600001 0.96000016
1.22 3.7 0.96000016
1.1800001 3.5800002 1.0000001
1.1800001 3.5800002 1.0400002
1.1800001 3.6200001 1.0000001
1.1800001 3.6200001 1.0400002
1.22 3.5800002 1.1200001
1.22 3.6200001 1.1200001
1.1800001 3.6600001 1.0000001
1.1800001 3.6600001 1.0400002
1.1800001 3.7 1.0000001
1.1800001 3.7 1.0400002
1.22 3.6600001 1.0000001
1.22 3.7 1.0000001
1.22 3.7 1.0400002
1.22 3.6600001 1.0800002
1.22 3.6600001 1.1200001
1.2600001 3.5800002 1.1200001
1.2600001 3.6600001 1.1200001
1.2600001 3.7 1.1200001
1.1800001 3.4200001 1.1600002
1.1800001 3.4200001 1.2000002
1.22 3.4200001 1.1600002
1.22 3.4200001 1.2000002
1.22 3.46 1.1600002
1.22 3.46 1.2000002
1.1800001 3.4200001 1.2400001
1.1800001 3.4200001 1.2800002
1.22 3.4200001 1.2400001
1.22 3.4200001 1.2800002
1.22 3.46 1.2800002
1.22 3.5 1.1600002
1.22 3.5 1.2000002
1.22 3.54 1.2000002
1.22 3.5 1.2400001
1.22 3.5 1.2800002
1.22 3.54 1.2400001
1.22 3.54 1.2800002
1.2600001 3.4200001 1.1600002
1.2600001 3.4200001 1.2400001
1.2600001 3.4200001 1.2800002
1.2600001 3.46 1.2800002
1.3000001 3.4200001 1.2800002
1.2600001 3.5 1.1600002
1.2600001 3.54 1.1600002
1.2600001 3.54 1.2000002
1.2600001 3.54 1.2800002
1.1800001 3.46 1.3200002
1.22 3.4200001 1.3200002
1.22 3.4200001 1.3600001
1.22 3.46 1.3200002
1.22 3.46 1.3600001
1.22 3.46 1.4000001
1.1800001 3.5 1.3200002
1.1800001 3.5 1.3600001
1.1800001 3.54 1.3600001
1.22 3.5 1.3200002
1.22 3.54 1.3200002
1.1800001 3.5 1.4000001
1.22 3.5 1.4000001
1.22 3.5 1.4400002
1.22 3.54 1.4000001
1.22 3.5800002 1.1600002
1.22 3.5800002 1.2000002
1.22 3.6200001 1.1600002
1.22 3.6200001 1.2000002
1.1800001 3.6200001 1.2800002
1.22 3.5800002 1.2400001
1.22 3.5800002 1.2800002
1.22 3.6200001 1.2400001
1.22 3.6200001 1.2800002
1.1800001 3.6600001 1.2000002
1.22 3.6600001 1.1600002
1.22 3.6600001 1.2000002
1.22 3.7 1.1600002
1.22 3.7 1.2000002
1.22 3.6600001 1.2400001
1.2600001 3.6200001 1.2800002
1.2600001 3.7 1.1600002
1.2600001 3.6600001 1.2400001
1.2600001 3.6600001 1.2800002
1.3000001 3.6600001 1.2800002
1.1800001 3.5800002 1.3200002
1.1800001 3.5800002 1.3600001
1.22 3.5800002 1.3600001
1.22 3.6200001 1.3600001
1.1800001 3.5800002 1.4400002
1.1800001 3.6200001 1.4000001
1.22 3.5800002 1.4000001
1.22 3.5800002 1.4400002
1.22 3.6200001 1.4400002
1.1800001 3.6600001 1.3600001
1.22 3.6600001 1.3200002
1.22 3.6600001 1.3600001
1.22 3.7 1.3200002
1.1800001 3.7 1.4400002
1.22 3.6600001 1.4000001
1.22 3.6600001 1.4400002
1.22 3.7 1.4000001
1.22 3.7 1.4400002
1.2600001 3.5800002 1.3200002
1.2600001 3.5800002 1.3600001
1.2600001 3.6200001 1.3600001
1.2600001 3.6600001 1.3200002
1.2600001 3.7 1.3600001
1.3000001 3.6600001 1.3200002
1.2600001 3.6600001 1.4400002
1.3000001 3.6600001 1.4000001
1.22 3.5 1.4800001
1.22 3.54 1.4800001
1.22 3.54 1.5200001
1.22 3.5 1.6000001
1.22 3.54 1.6000001
1.2600001 3.4200001 1.5600002
1.2600001 3.46 1.6000001
1.3000001 3.4200001 1.5600002
1.3000001 3.46 1.6000001
1.2600001 3.5 1.6000001
1.2600001 3.54 1.6000001
1.1800001 3.46 1.6800002
1.22 3.46 1.6800002
1.1800001 3.54 1.6800002
1.22 3.54 1.6400001
1.2600001 3.46 1.6400001
1.2600001 3.54 1.6400001
1.2600001 3.54 1.6800002
1.2600001 3.5 1.7600001
1.22 3.5800002 1.4800001
1.22 3.6200001 1.4800001
1.22 3.6600001 1.4800001
1.22 3.6600001 1.5200001
1.2600001 3.5800002 1.5600002
1.2600001 3.5800002 1.6000001
1.22 3.5800002 1.7200001
1.1800001 3.6600001 1.6400001
1.22 3.6600001 1.6400001
1.1800001 3.6600001 1.7600001
1.22 3.7 1.7600001
1.3800001 3.6200001 1.7200001
1.2600001 3.46 1.8400002
1.2600001 3.5800002 1.8000002
2.1000001 2.6600001 2.0800002
2.1400001 2.6200001 2.0800002
1.22 3.8600001 0.080000155
1.2600001 3.74 0.12000015
1.2600001 3.74 0.16000016
1.2600001 3.78 0.12000015
1.3000001 3.78 0.16000016
1.2600001 3.8200002 0.16000016
1.2600001 3.8600001 0.12000015
1.2600001 3.8600001 0.16000016
1.2600001 3.9000001 0.080000155
1.2600001 3.9400001 0.12000015
1.2600001 3.9400001 0.16000016
1.3000001 3.9400001 0.12000015
1.2600001 3.98 0.16000016
1.2600001 4.02 0.12000015
1.3000001 3.98 0.12000015
1.22 4.1399999 0.16000016
1.22 4.1799998 0.12000015
1.2600001 4.0599999 0.16000016
1.2600001 4.0999999 0.16000016
1.2600001 4.1399999 0.16000016
1.2600001 4.1799998 0.16000016
1.1800001 4.3000002 1.5422702e-07
1.22 4.2200003 0.16000016
1.22 4.2600002 0.12000015
1.22 4.2600002 0.16000016
1.22 4.3000002 0.12000015
1.22 4.3000002 0.16000016
1.22 4.3400002 0.12000015
1.22 4.3400002 0.16000016
1.3800001 4.0599999 -0.039999846
1.34 4.2200003 1.5422702e-07
1.2600001 3.74 0.20000015
1.2600001 3.78 0.20000015
1.2600001 3.78 0.24000016
1.3000001 3.78 0.20000015
1.3000001 3.78 0.32000014
1.2600001 3.8200002 0.24000016
1.2600001 3.8600001 0.20000015
1.2600001 3.8600001 0.24000016
1.3000001 3.8200002 0.20000015
1.2600001 3.8200002 0.28000015
1.3000001 3.8200002 0.32000014
1.2600001 3.78 0.48000017
1.3000001 3.78 0.48000017
1.22 4.02 0.28000015
1.2600001 3.9000001 0.20000015
1.2600001 3.9400001 0.20000015
1.2600001 3.9400001 0.24000016
1.2600001 3.98 0.24000016
1.2600001 4.02 0.24000016
1.3000001 3.98 0.20000015
1.2600001 4.02 0.32000014
1.3800001 3.74 0.48000017
1.3800001 3.78 0.48000017
1.3800001 3.8200002 0.48000017
1.3800001 3.8600001 0.48000017
1.1800001 3.74 0.60000014
1.1800001 3.74 0.64000016
1.1800001 3.78 0.60000014
1.1800001 3.78 0.64000016
1.22 3.78 0.60000014
1.22 3.78 0.64000016
1.3000001 3.74 0.52000016
1.3000001 3.8600001 0.52000016
1.1800001 3.74 0.68000013
1.1800001 3.74 0.72000015
1.1800001 3.78 0.68000013
1.22 3.74 0.72000015
1.1800001 3.74 0.76000017
1.1800001 3.74 0.80000013
1.1800001 3.78 0.76000017
1.1800001 3.78 0.80000013
1.22 3.78 0.80000013
1.2600001 3.78 0.80000013
1.34 3.8600001 0.52000016
1.3800001 3.8600001 0.52000016
1.4200001 3.74 0.64000016
1.22 4.0599999 0.24000016
1.22 4.0599999 0.28000015
1.22 4.0999999 0.28000015
1.22 4.1799998 0.20000015
1.22 4.1799998 0.28000015
1.22 4.1799998 0.32000014
1.2600001 4.0599999 0.20000015
1.2600001 4.0599999 0.24000016
1.2600001 4.0999999 0.20000015
1.2600001 4.0999999 0.24000016
1.2600001 4.0599999 0.32000014
1.2600001 4.0999999 0.28000015
1.2600001 4.1399999 0.24000016
1.2600001 4.1799998 0.20000015
1.2600001 4.1799998 0.24000016
1.2600001 4.1399999 0.28000015
1.22 4.2600002 0.20000015
1.22 4.2200003 0.32000014
1.22 4.3000002 0.20000015
1.22 4.3000002 0.24000016
1.2600001 4.2200003 0.20000015
1.2600001 4.2200003 0.24000016
1.2600001 4.2200003 0.28000015
1.2600001 4.2600002 0.28000015
1.2600001 4.2600002 0.32000014
1.2600001 4.3400002 0.20000015
1.2600001 4.3400002 0.24000016
1.2600001 4.3000002 0.28000015
1.2600001 4.3000002 0.32000014
1.2600001 4.3400002 0.28000015
1.2600001 4.3400002 0.32000014
1.3000001 4.3800001 0.040000156
1.3000001 4.3800001 0.080000155
1.2600001 4.4200001 0.12000015
1.2600001 4.4200001 0.16000016
1.2600001 4.46 0.12000015
1.2600001 4.46 0.16000016
1.3000001 4.46 0.12000015
1.22 4.54 0.16000016
1.22 4.3800001 0.24000016
1.22 4.3800001 0.28000015
1.22 4.3800001 0.32000014
1.22 4.4200001 0.28000015
1.22 4.46 0.20000015
1.22 4.46 0.24000016
1.22 4.46 0.28000015
1.22 4.5 0.28000015
1.2600001 4.3800001 0.20000015
1.2600001 4.4200001 0.20000015
1.2600001 4.46 0.20000015
1.2600001 4.5 0.20000015
1.2600001 4.5 0.24000016
1.22 4.54 0.28000015
1.22 4.54 0.32000014
1.22 4.5799999 0.28000015
1.22 4.6199999 0.28000015
1.2600001 4.54 0.20000015
1.2600001 4.54 0.24000016
1.2600001 4.5799999 0.24000016
1.2600001 4.5799999 0.28000015
1.2600001 4.6199999 0.24000016
1.2600001 4.6599998 0.24000016
1.2600001 4.6599998 0.28000015
1.2600001 4.7400002 0.24000016
1.2600001 4.7000003 0.28000015
1.2600001 4.7400002 0.28000015
1.2600001 4.7800002 0.24000016
1.2600001 4.7800002 0.28000015
1.2600001 4.8200002 0.28000015
1.2600001 4.8600001 0.24000016
1.2600001 4.9000001 0.24000016
1.2600001 4.9000001 0.28000015
1.2600001 4.9000001 0.32000014
1.2600001 4.9400001 0.24000016
1.2600001 4.98 0.24000016
1.2600001 4.9400001 0.28000015
1.2600001 4.98 0.28000015
2.02 3.74 0.32000014
2.0599999 3.74 0.32000014
2.0599999 3.78 0.32000014
2.1000001 3.74 0.32000014
2.1000001 3.78 0.32000014
2.0599999 3.8200002 0.32000014
2.0599999 3.8600001 0.32000014
2.1000001 3.8200002 0.32000014
2.1000001 3.8600001 0.32000014
2.02 3.98 0.32000014
2.0599999 3.9400001 0.32000014
2.1000001 3.9000001 0.32000014
2.1000001 3.9400001 0.32000014
2.0599999 4.02 0.32000014
2.1000001 4.02 0.32000014
2.02 4.0599999 0.32000014
2.02 4.1799998 0.32000014
2.0599999 4.0599999 0.32000014
2.1000001 4.0599999 0.32000014
2.0599999 4.1399999 0.32000014
2.1000001 4.1399999 0.32000014
2.02 4.3400002 0.32000014
2.0599999 4.2200003 0.32000014
2.0599999 4.2600002 0.32000014
2.1000001 4.2200003 0.32000014
2.0599999 4.3000002 0.32000014
2.0599999 4.3400002 0.32000014
2.1400001 3.74 0.32000014
2.1400001 3.78 0.32000014
2.1800001 3.78 0.32000014
2.1400001 3.8200002 0.32000014
2.1400001 3.8600001 0.32000014
2.22 3.78 0.32000014
2.26 3.74 0.32000014
2.26 3.78 0.32000014
2.22 3.8200002 0.32000014
2.22 3.8600001 0.32000014
2.26 3.8200002 0.32000014
2.26 3.8600001 0.28000015
2.26 3.8600001 0.32000014
2.1400001 3.9000001 0.32000014
2.1800001 3.9000001 0.32000014
2.1800001 3.9400001 0.32000014
2.1400001 3.98 0.32000014
2.1400001 4.02 0.32000014
2.1800001 3.98 0.32000014
2.1800001 4.02 0.32000014
2.22 3.9000001 0.32000014
2.22 3.9400001 0.32000014
2.26 3.9000001 0.32000014
2.26 3.9400001 0.32000014
2.22 4.02 0.32000014
2.26 3.98 0.32000014
2.26 4.02 0.32000014
2.3 3.74 0.32000014
2.3 3.78 0.32000014
2.3400002 3.74 0.32000014
2.3400002 3.78 0.32000014
2.3 3.8200002 0.32000014
2.3 3.8600001 0.32000014
2.3400002 3.8200002 0.32000014
2.3800001 3.74 0.32000014
2.3800001 3.78 0.32000014
2.4200001 3.74 0.32000014
2.3800001 3.8600001 0.32000014
2.4200001 3.8200002 0.32000014
2.4200001 3.8600001 0.32000014
2.3400002 3.9400001 0.32000014
2.3 3.98 0.32000014
2.3 4.02 0.32000014
2.3400002 4.02 0.32000014
2.3800001 3.9000001 0.32000014
2.4200001 3.9000001 0.32000014
2.4200001 3.9400001 0.32000014
2.3800001 3.98 0.32000014
2.3800001 4.02 0.32000014
2.4200001 3.98 0.32000014
2.4200001 4.02 0.32000014
2.1400001 4.0599999 0.32000014
2.1800001 4.0599999 0.32000014
2.1800001 4.1399999 0.32000014
2.1800001 4.1799998 0.32000014
2.22 4.0599999 0.32000014
2.22 4.0999999 0.32000014
2.26 4.0599999 0.32000014
2.22 4.1399999 0.32000014
2.26 4.1399999 0.32000014
2.26 4.1799998 0.32000014
2.1400001 4.2200003 0.32000014
2.1400001 4.2600002 0.32000014
2.1800001 4.2600002 0.32000014
2.1400001 4.3000002 0.32000014
2.1800001 4.3000002 0.32000014
2.1800001 4.3400002 0.32000014
2.22 4.2200003 0.32000014
2.22 4.2600002 0.32000014
2.26 4.2200003 0.32000014
2.26 4.2600002 0.32000014
2.22 4.3000002 0.32000014
2.22 4.3400002 0.32000014
2.26 4.3000002 0.32000014
2.3 4.1399999 0.32000014
2.3400002 4.1399999 0.32000014
2.3400002 4.1799998 0.32000014
2.3800001 4.0599999 0.32000014
2.3800001 4.0999999 0.32000014
2.4200001 4.0599999 0.32000014
2.3800001 4.1399999 0.32000014
2.3800001 4.1799998 0.32000014
2.4200001 4.1399999 0.32000014
2.4200001 4.1799998 0.32000014
2.3 4.2200003 0.32000014
2.3 4.2600002 0.32000014
2.3400002 4.2600002 0.32000014
2.3 4.3000002 0.32000014
2.3 4.3400002 0.32000014
2.3400002 4.3000002 0.32000014
2.3400002 4.3400002 0.32000014
2.3800001 4.2200003 0.32000014
2.3800001 4.2600002 0.32000014
2.4200001 4.2200003 0.32000014
2.4200001 4.2600002 0.32000014
2.3800001 4.3000002 0.32000014
2.3800001 4.3400002 0.32000014
2.4200001 4.3400002 0.32000014
1.9400001 4.4200001 0.48000017
2.0599999 4.3800001 0.32000014
2.0599999 4.4200001 0.32000014
2.1000001 4.4200001 0.32000014
2.0599999 4.5 0.32000014
2.1000001 4.46 0.32000014
2.02 4.54 0.32000014
2.0599999 4.54 0.32000014
2.0599999 4.5799999 0.32000014
2.1000001 4.5799999 0.32000014
2.0599999 4.6199999 0.32000014
2.1000001 4.6199999 0.32000014
2.1000001 4.6599998 0.36000016
2.1000001 4.7400002 0.32000014
2.0599999 4.8200002 0.32000014
2.1400001 4.3800001 0.32000014
2.1400001 4.4200001 0.32000014
2.1800001 4.3800001 0.32000014
2.1800001 4.4200001 0.32000014
2.1400001 4.46 0.32000014
2.1800001 4.46 0.32000014
2.1800001 4.5 0.32000014
2.22 4.3800001 0.32000014
2.22 4.4200001 0.32000014
2.26 4.4200001 0.32000014
2.22 4.5 0.32000014
2.26 4.46 0.32000014
2.26 4.5 0.32000014
2.1400001 4.54 0.32000014
2.1800001 4.54 0.32000014
2.1400001 4.6599998 0.32000014
2.1800001 4.6199999 0.32000014
2.1800001 4.6599998 0.32000014
2.22 4.5799999 0.32000014
2.26 4.54 0.32000014
2.22 4.6199999 0.32000014
2.22 4.6599998 0.32000014
2.3 4.3800001 0.32000014
2.3400002 4.3800001 0.28000015
2.3400002 4.3800001 0.32000014
2.3400002 4.4200001 0.32000014
2.3 4.46 0.32000014
2.3 4.5 0.32000014
2.3400002 4.46 0.32000014
2.3800001 4.4200001 0.32000014
2.4200001 4.3800001 0.32000014
2.3800001 4.5 0.32000014
2.4200001 4.46 0.32000014
2.4200001 4.5 0.32000014
2.3 4.54 0.32000014
2.3400002 4.54 0.32000014
2.3 4.6199999 0.32000014
2.3 4.6599998 0.32000014
2.3400002 4.6599998 0.28000015
2.3800001 4.54 0.32000014
2.4200001 4.54 0.32000014
2.4200001 4.6599998 0.32000014
2.1400001 4.7400002 0.32000014
2.1800001 4.7000003 0.32000014
2.1400001 4.7800002 0.32000014
2.1800001 4.8200002 0.32000014
2.22 4.7000003 0.32000014
2.26 4.7000003 0.32000014
2.22 4.8200002 0.32000014
2.26 4.7800002 0.32000014
2.1800001 4.7800002 0.36000016
2.22 4.8200002 0.36000016
2.1400001 4.9400001 0.32000014
2.1400001 4.98 0.32000014
2.1800001 4.98 0.32000014
2.26 4.8600001 0.32000014
2.22 4.8600001 0.36000016
2.22 4.9400001 0.36000016
2.3 4.7000003 0.32000014
2.3 4.7400002 0.32000014
2.3400002 4.7000003 0.32000014
2.3400002 4.7400002 0.32000014
2.4200001 4.7400002 0.32000014
2.4200001 4.7800002 0.32000014
2.4200001 4.7000003 0.36000016
2.3 4.8600001 0.32000014
2.3400002 4.8600001 0.32000014
2.3800001 4.8600001 0.32000014
2.4200001 4.8600001 0.32000014
2.3400002 4.9000001 0.36000016
2.3 4.98 0.36000016
2.3400002 4.9400001 0.36000016
2.3400002 4.98 0.36000016
1.1800001 3.74 0.84000015
1.1800001 3.78 0.84000015
1.1800001 3.78 0.88000017
1.22 3.78 0.84000015
1.1800001 3.74 0.92000014
1.1800001 3.78 0.96000016
1.22 3.74 0.96000016
1.22 3.78 0.92000014
1.1800001 3.74 1.0400002
1.1800001 3.78 1.0000001
1.1800001 3.78 1.0400002
1.22 3.74 1.0400002
1.22 3.74 1.0800002
1.22 3.74 1.1200001
1.22 3.74 1.1600002
1.22 3.74 1.2000002
1.2600001 3.74 1.2800002
1.22 3.74 1.3200002
1.1800001 3.74 1.4400002
1.22 3.74 1.4000001
1.22 3.74 1.4400002
1.2600001 3.74 1.3200002
1.2600001 3.74 1.4000001
1.1800001 3.74 1.5600002
1.2600001 3.74 1.6400001
2.9000001 1.0600001 1.5422702e-07
3.1400001 1.0600001 -0.039999846
3.7 0.78000003 -0.079999849
3.4200001 0.90000004 -0.039999846
3.4200001 1.1400001 -0.039999846
3.46 1.1400001 -0.039999846
3.54 1.1400001 1.5422702e-07
3.7 0.98000008 -0.079999849
3.7 0.94000006 -0.039999846
3.7 0.98000008 1.5422702e-07
3.5800002 1.0600001 1.5422702e-07
3.5800002 1.1400001 1.5422702e-07
3.7 1.0600001 -0.079999849
3.6600001 1.0200001 -0.039999846
3.7 1.0600001 -0.039999846
3.7 1.1400001 -0.039999846
2.5800002 1.46 -0.079999849
2.9400001 1.22 1.5422702e-07
2.9400001 1.3800001 -0.039999846
2.8200002 1.74 -0.039999846
3.02 1.58 1.5422702e-07
3.02 1.62 1.5422702e-07
3.0599999 1.62 1.5422702e-07
3.02 1.5400001 0.040000156
3.02 1.62 0.040000156
2.9400001 1.7 1.5422702e-07
2.98 1.7800001 1.5422702e-07
3.0599999 1.6600001 0.040000156
3.02 1.74 0.040000156
2.46 2.02 -0.039999846
2.5 2.0599999 1.5422702e-07
2.54 2.02 -0.039999846
2.5800002 2.02 -0.039999846
2.5800002 2.02 1.5422702e-07
2.54 2.0599999 -0.039999846
2.54 2.0599999 1.5422702e-07
2.5800002 2.0599999 -0.039999846
2.7 1.98 -0.039999846
2.7 1.98 1.5422702e-07
2.7 2.02 1.5422702e-07
2.7 2.1000001 1.5422702e-07
2.74 2.0599999 1.5422702e-07
2.46 2.22 -0.079999849
2.5 2.22 -0.079999849
2.46 2.4200001 -0.079999849
2.6600001 2.1800001 -0.039999846
2.6600001 2.22 -0.039999846
2.7 2.1800001 -0.039999846
2.7 2.1800001 1.5422702e-07
2.74 2.22 1.5422702e-07
2.6200001 2.3 -0.039999846
2.6600001 2.3400002 -0.039999846
2.6200001 2.4200001 -0.079999849
2.6600001 2.4200001 -0.079999849
2.6200001 2.4200001 -0.039999846
2.7 2.3 -0.039999846
2.74 2.3400002 1.5422702e-07
2.8600001 1.9000001 -0.039999846
2.8600001 1.9000001 1.5422702e-07
2.8600001 1.9400001 -0.039999846
2.9000001 1.9000001 1.5422702e-07
2.78 2.02 -0.039999846
2.78 2.02 1.5422702e-07
2.8200002 2.02 -0.039999846
2.8200002 2.02 1.5422702e-07
2.78 2.0599999 1.5422702e-07
2.8600001 2.02 -0.039999846
2.9000001 1.98 -0.039999846
2.9000001 2.02 1.5422702e-07
2.8600001 2.1000001 -0.079999849
2.8600001 2.0599999 -0.039999846
2.9000001 2.1000001 -0.039999846
2.9400001 1.86 1.5422702e-07
2.98 1.86 -0.039999846
2.98 1.9400001 -0.079999849
2.9400001 1.9000001 -0.039999846
2.98 1.9000001 -0.039999846
3.02 1.86 1.5422702e-07
3.02 1.9400001 -0.039999846
2.9400001 1.98 -0.039999846
2.9400001 2.02 -0.039999846
2.98 1.98 -0.039999846
2.98 2.02 1.5422702e-07
2.98 2.1000001 1.5422702e-07
3.02 2.02 -0.039999846
3.0599999 1.98 -0.039999846
3.0599999 2.02 1.5422702e-07
2.8200002 2.1800001 -0.039999846
2.8200002 2.22 1.5422702e-07
2.8200002 2.26 1.5422702e-07
2.9000001 2.1800001 -0.039999846
2.9000001 2.1400001 0.040000156
2.78 2.3400002 -0.079999849
2.78 2.3800001 -0.079999849
2.8200002 2.4200001 1.5422702e-07
2.9000001 2.3400002 -0.039999846
2.9000001 2.3400002 1.5422702e-07
2.8600001 2.3800001 -0.039999846
3.02 2.1800001 1.5422702e-07
3.0599999 2.1400001 -0.039999846
3.0599999 2.1800001 -0.039999846
3.0599999 2.26 1.5422702e-07
2.9400001 2.3 -0.039999846
2.9400001 2.3400002 1.5422702e-07
2.98 2.3400002 -0.039999846
2.98 2.3400002 1.5422702e-07
2.9400001 2.3800001 1.5422702e-07
2.98 2.3800001 1.5422702e-07
3.0599999 2.3400002 -0.039999846
3.0599999 2.3400002 1.5422702e-07
3.02 2.3800001 -0.039999846
3.02 2.4200001 1.5422702e-07
3.0599999 2.3800001 -0.039999846
3.0599999 2.4200001 1.5422702e-07
3.22 1.2600001 -0.039999846
3.1800001 1.2600001 0.040000156
3.1000001 1.3800001 -0.039999846
3.1400001 1.46 1.5422702e-07
3.22 1.3800001 1.5422702e-07
3.1800001 1.46 -0.039999846
3.26 1.22 1.5422702e-07
3.3 1.2600001 -0.039999846
3.3800001 1.2600001 0.040000156
3.3800001 1.4200001 -0.039999846
3.3800001 1.46 1.5422702e-07
3.1000001 1.62 1.5422702e-07
3.1400001 1.62 1.5422702e-07
3.22 1.5000001 -0.039999846
3.1800001 1.62 1.5422702e-07
3.22 1.62 1.5422702e-07
3.1000001 1.62 0.040000156
3.1400001 1.74 1.5422702e-07
3.22 1.6600001 1.5422702e-07
3.1800001 1.7800001 -0.039999846
3.22 1.74 1.5422702e-07
3.26 1.5400001 -0.039999846
3.26 1.58 1.5422702e-07
3.26 1.62 1.5422702e-07
3.3 1.62 1.5422702e-07
3.3800001 1.5000001 1.5422702e-07
3.3800001 1.5400001 1.5422702e-07
3.3400002 1.58 1.5422702e-07
3.3400002 1.62 1.5422702e-07
3.3800001 1.58 -0.039999846
3.3800001 1.62 1.5422702e-07
3.26 1.6600001 1.5422702e-07
3.3 1.6600001 1.5422702e-07
3.26 1.7800001 1.5422702e-07
3.3400002 1.6600001 1.5422702e-07
3.3400002 1.7 1.5422702e-07
3.3400002 1.74 -0.039999846
3.3800001 1.7800001 1.5422702e-07
3.26 1.6600001 0.040000156
3.4200001 1.22 1.5422702e-07
3.46 1.1800001 -0.039999846
3.4200001 1.2600001 1.5422702e-07
3.46 1.2600001 -0.039999846
3.46 1.3000001 -0.039999846
3.5 1.22 -0.039999846
3.5 1.22 1.5422702e-07
3.46 1.34 -0.039999846
3.46 1.4200001 1.5422702e-07
3.5 1.3800001 -0.039999846
3.54 1.34 -0.039999846
3.54 1.3800001 -0.039999846
3.5 1.4200001 -0.039999846
3.5 1.4200001 1.5422702e-07
3.5 1.46 -0.039999846
3.5 1.46 1.5422702e-07
3.6200001 1.22 -0.079999849
3.5800002 1.1800001 1.5422702e-07
3.5800002 1.22 -0.039999846
3.5800002 1.3000001 -0.039999846
3.6200001 1.2600001 -0.039999846
3.7 1.1800001 1.5422702e-07
3.6600001 1.2600001 1.5422702e-07
3.6600001 1.3000001 -0.039999846
3.5800002 1.3800001 -0.039999846
3.6200001 1.34 1.5422702e-07
3.6200001 1.3800001 -0.039999846
3.6200001 1.46 -0.079999849
3.5800002 1.4200001 -0.039999846
3.5800002 1.4200001 1.5422702e-07
3.6200001 1.46 -0.039999846
3.6200001 1.46 1.5422702e-07
3.6600001 1.3800001 -0.079999849
3.6600001 1.3800001 -0.039999846
3.7 1.4200001 1.5422702e-07
3.46 1.5000001 -0.039999846
3.46 1.5000001 1.5422702e-07
3.46 1.58 -0.039999846
3.5 1.5400001 1.5422702e-07
3.54 1.5400001 -0.039999846
3.54 1.5400001 1.5422702e-07
3.5 1.58 1.5422702e-07
3.5 1.62 1.5422702e-07
3.46 1.62 0.040000156
3.4200001 1.6600001 1.5422702e-07
3.46 1.6600001 1.5422702e-07
3.4200001 1.74 1.5422702e-07
3.46 1.74 -0.039999846
3.46 1.74 1.5422702e-07
3.46 1.7800001 1.5422702e-07
3.5 1.6600001 1.5422702e-07
3.54 1.6600001 1.5422702e-07
3.54 1.7 1.5422702e-07
3.54 1.7800001 -0.039999846
3.54 1.7800001 1.5422702e-07
3.4200001 1.7800001 0.040000156
3.46 1.7800001 0.040000156
3.5800002 1.5000001 -0.039999846
3.5800002 1.5400001 -0.039999846
3.5800002 1.5400001 1.5422702e-07
3.6200001 1.5000001 -0.039999846
3.6200001 1.5400001 1.5422702e-07
3.6200001 1.58 -0.039999846
3.6200001 1.62 -0.039999846
3.6200001 1.62 1.5422702e-07
3.6600001 1.58 -0.039999846
3.7 1.58 1.5422702e-07
3.7 1.62 1.5422702e-07
3.5800002 1.6600001 -0.039999846
3.5800002 1.6600001 1.5422702e-07
3.5800002 1.7 -0.039999846
3.6200001 1.6600001 1.5422702e-07
3.5800002 1.74 1.5422702e-07
3.5800002 1.7800001 1.5422702e-07
3.6200001 1.74 1.5422702e-07
3.6600001 1.6600001 1.5422702e-07
3.7 1.6600001 1.5422702e-07
3.7 1.7 1.5422702e-07
3.6600001 1.7800001 -0.079999849
3.6600001 1.74 1.5422702e-07
3.6600001 1.7800001 1.5422702e-07
3.7 1.74 -0.039999846
3.7 1.7800001 -0.039999846
3.1000001 1.86 1.5422702e-07
3.1400001 1.8200001 1.5422702e-07
3.1800001 1.86 1.5422702e-07
3.22 1.86 1.5422702e-07
3.1800001 1.9400001 1.5422702e-07
3.1400001 1.8200001 0.040000156
3.22 1.8200001 0.040000156
3.1000001 1.98 1.5422702e-07
3.1400001 1.98 1.5422702e-07
3.1400001 2.02 -0.039999846
3.1400001 2.02 1.5422702e-07
3.1000001 2.0599999 -0.039999846
3.1000001 2.1000001 1.5422702e-07
3.1400001 2.0599999 1.5422702e-07
3.1400001 2.1000001 1.5422702e-07
3.1800001 1.98 -0.039999846
3.1800001 2.02 -0.039999846
3.1800001 2.1000001 -0.039999846
3.22 2.1000001 -0.039999846
3.26 1.86 1.5422702e-07
3.26 1.9000001 1.5422702e-07
3.3400002 1.86 -0.039999846
3.3400002 1.9000001 1.5422702e-07
3.3800001 1.9400001 0.040000156
3.26 1.98 -0.039999846
3.26 1.98 1.5422702e-07
3.26 2.02 -0.039999846
3.26 2.02 1.5422702e-07
3.3 2.02 -0.039999846
3.3 2.02 1.5422702e-07
3.3 2.1000001 -0.039999846
3.3400002 1.98 -0.039999846
3.3400002 2.02 1.5422702e-07
3.3800001 1.98 1.5422702e-07
3.3800001 2.02 1.5422702e-07
3.3400002 2.0599999 1.5422702e-07
3.3800001 2.0599999 -0.039999846
3.3400002 2.1000001 0.040000156
3.1400001 2.1400001 -0.079999849
3.1400001 2.1400001 -0.039999846
3.1000001 2.22 -0.079999849
3.1000001 2.22 -0.039999846
3.1000001 2.26 -0.039999846
3.1400001 2.26 1.5422702e-07
3.1800001 2.1800001 1.5422702e-07
3.1800001 2.22 -0.039999846
3.1800001 2.26 1.5422702e-07
3.22 2.22 -0.039999846
3.22 2.26 -0.039999846
3.22 2.26 1.5422702e-07
3.1400001 2.1800001 0.080000155
3.1800001 2.26 0.040000156
3.1000001 2.3400002 -0.039999846
3.1000001 2.4200001 1.5422702e-07
3.1400001 2.3800001 1.5422702e-07
3.1800001 2.3 1.5422702e-07
3.1800001 2.3400002 -0.039999846
3.1800001 2.3800001 1.5422702e-07
3.22 2.4200001 1.5422702e-07
3.1800001 2.3800001 0.040000156
3.1800001 2.4200001 0.040000156
3.26 2.1400001 1.5422702e-07
3.3 2.1400001 1.5422702e-07
3.3 2.1800001 1.5422702e-07
3.3 2.22 -0.039999846
3.3 2.22 1.5422702e-07
3.3400002 2.1400001 1.5422702e-07
3.3400002 2.1800001 -0.039999846
3.3400002 2.1800001 1.5422702e-07
3.3800001 2.1400001 1.5422702e-07
3.3400002 2.26 0.040000156
3.3800001 2.22 0.040000156
3.26 2.3400002 -0.039999846
3.3 2.3 -0.039999846
3.3 2.3400002 -0.039999846
3.26 2.3800001 -0.039999846
3.26 2.3800001 1.5422702e-07
3.26 2.4200001 -0.039999846
3.3 2.3800001 1.5422702e-07
3.3 2.4200001 -0.039999846
3.3 2.4200001 1.5422702e-07
3.3400002 2.3 -0.039999846
3.3400002 2.3 1.5422702e-07
3.3800001 2.3400002 1.5422702e-07
3.3400002 2.3800001 1.5422702e-07
3.26 2.3800001 0.040000156
3.26 2.4200001 0.040000156
3.3 2.4200001 0.040000156
3.4200001 1.86 -0.039999846
3.4200001 1.9000001 -0.039999846
3.46 1.9000001 -0.039999846
3.46 1.9000001 1.5422702e-07
3.5 1.8200001 1.5422702e-07
3.54 1.8200001 1.5422702e-07
3.54 1.86 -0.039999846
3.54 1.9400001 1.5422702e-07
3.4200001 2.02 1.5422702e-07
3.46 2.02 1.5422702e-07
3.4200001 2.0599999 1.5422702e-07
3.46 2.1000001 1.5422702e-07
3.5 2.02 -0.039999846
3.5 2.02 1.5422702e-07
3.5 2.0599999 1.5422702e-07
3.5 2.1000001 1.5422702e-07
3.54 2.0599999 1.5422702e-07
3.54 2.1000001 1.5422702e-07
3.5800002 1.8200001 -0.039999846
3.5800002 1.86 -0.039999846
3.6200001 1.8200001 -0.039999846
3.6200001 1.86 -0.039999846
3.6200001 1.9000001 1.5422702e-07
3.6600001 1.86 -0.039999846
3.7 1.86 -0.039999846
3.6600001 1.9000001 1.5422702e-07
3.7 1.9000001 1.5422702e-07
3.7 1.9400001 -0.039999846
3.5800002 2.02 1.5422702e-07
3.6200001 1.98 1.5422702e-07
3.6200001 2.02 1.5422702e-07
3.5800002 2.0599999 1.5422702e-07
3.5800002 2.1000001 1.5422702e-07
3.6200001 2.0599999 1.5422702e-07
3.6200001 2.1000001 1.5422702e-07
3.6600001 2.02 -0.039999846
3.7 1.98 1.5422702e-07
3.6600001 2.0599999 -0.039999846
3.6600001 2.0599999 1.5422702e-07
3.6600001 2.1000001 -0.039999846
3.7 2.0599999 -0.039999846
3.4200001 2.1400001 1.5422702e-07
3.46 2.1400001 1.5422702e-07
3.46 2.1800001 -0.039999846
3.46 2.1800001 1.5422702e-07
3.4200001 2.22 1.5422702e-07
3.4200001 2.26 1.5422702e-07
3.46 2.26 1.5422702e-07
3.5 2.1400001 -0.039999846
3.5 2.1800001 -0.039999846
3.5 2.22 -0.039999846
3.5 2.26 -0.039999846
3.5 2.26 1.5422702e-07
3.54 2.26 1.5422702e-07
3.4200001 2.3 -0.039999846
3.4200001 2.3 1.5422702e-07
3.46 2.3 -0.039999846
3.46 2.3800001 -0.079999849
3.46 2.4200001 -0.079999849
3.4200001 2.4200001 1.5422702e-07
3.46 2.3800001 1.5422702e-07
3.46 2.4200001 -0.039999846
3.46 2.4200001 1.5422702e-07
3.54 2.3 -0.079999849
3.5 2.3 1.5422702e-07
3.5 2.3400002 -0.039999846
3.54 2.3 -0.039999846
3.54 2.3 1.5422702e-07
3.54 2.3400002 1.5422702e-07
3.5 2.3800001 -0.079999849
3.5 2.4200001 -0.039999846
3.5 2.4200001 1.5422702e-07
3.54 2.3800001 -0.039999846
3.46 2.3 0.040000156
3.5 2.3400002 0.040000156
3.5800002 2.1400001 1.5422702e-07
3.6200001 2.1400001 1.5422702e-07
3.6200001 2.22 -0.079999849
3.5800002 2.26 -0.039999846
3.5800002 2.26 1.5422702e-07
3.6200001 2.26 -0.039999846
3.6600001 2.1400001 1.5422702e-07
3.6600001 2.1800001 1.5422702e-07
3.6600001 2.22 -0.039999846
3.5800002 2.26 0.040000156
3.6600001 2.1800001 0.040000156
3.5800002 2.3400002 -0.039999846
3.5800002 2.3400002 1.5422702e-07
3.6200001 2.3 1.5422702e-07
3.6200001 2.3400002 -0.039999846
3.5800002 2.3800001 -0.039999846
3.5800002 2.4200001 1.5422702e-07
3.6200001 2.3800001 1.5422702e-07
3.6200001 2.4200001 -0.039999846
3.6600001 2.3 1.5422702e-07
3.6600001 2.3400002 -0.039999846
3.6600001 2.3400002 1.5422702e-07
3.7 2.3400002 -0.039999846
3.7 2.3400002 1.5422702e-07
3.7 2.4200001 -0.079999849
3.7 2.3800001 -0.039999846
3.7 2.4200001 -0.039999846
3.7 2.4200001 1.5422702e-07
3.9400001 0.70000005 1.5422702e-07
3.9000001 0.82000005 -0.039999846
3.9400001 0.78000003 1.5422702e-07
4.02 0.74000007 -0.079999849
4.02 0.82000005 1.5422702e-07
3.78 0.86000007 -0.039999846
3.78 0.94000006 -0.039999846
3.8600001 0.86000007 -0.079999849
3.8200002 0.94000006 -0.039999846
3.8600001 0.98000008 -0.039999846
3.8600001 0.90000004 0.040000156
3.74 1.0600001 -0.039999846
3.78 1.0200001 -0.039999846
3.78 1.0600001 -0.039999846
3.74 1.1 -0.079999849
3.8200002 1.0600001 -0.039999846
3.8600001 1.0600001 1.5422702e-07
3.8200002 1.1400001 1.5422702e-07
3.8600001 1.1 -0.039999846
3.9000001 0.86000007 -0.079999849
3.9000001 0.90000004 -0.079999849
3.9400001 0.86000007 -0.039999846
3.9400001 0.90000004 -0.039999846
3.9400001 0.90000004 1.5422702e-07
3.9000001 0.98000008 -0.039999846
4.02 0.90000004 -0.079999849
4.02 0.86000007 1.5422702e-07
4.02 0.90000004 1.5422702e-07
4.02 0.98000008 -0.079999849
4.02 0.94000006 -0.039999846
4.02 0.94000006 1.5422702e-07
4.02 0.98000008 -0.039999846
3.9400001 1.0600001 -0.079999849
3.9400001 1.0200001 -0.039999846
3.9000001 1.1400001 -0.039999846
3.9400001 1.1400001 -0.039999846
4.02 1.0200001 -0.039999846
4.02 1.0600001 -0.039999846
4.02 1.0600001 1.5422702e-07
3.98 1.1400001 1.5422702e-07
4.02 1.1 -0.039999846
4.02 1.1400001 -0.039999846
4.0999999 0.66000009 1.5422702e-07
4.0599999 0.74000007 -0.039999846
4.0999999 0.70000005 -0.039999846
4.0999999 0.70000005 1.5422702e-07
4.0999999 0.78000003 -0.079999849
4.0599999 0.82000005 -0.039999846
4.0999999 0.82000005 -0.039999846
4.0999999 0.82000005 1.5422702e-07
4.1399999 0.70000005 -0.039999846
4.1799998 0.70000005 -0.039999846
4.1399999 0.82000005 -0.039999846
4.1799998 0.78000003 1.5422702e-07
4.1799998 0.82000005 -0.039999846
4.2200003 0.66000009 1.5422702e-07
4.3000002 0.66000009 1.5422702e-07
4.3400002 0.66000009 -0.039999846
4.2200003 0.70000005 -0.039999846
4.2200003 0.74000007 1.5422702e-07
4.2600002 0.70000005 -0.039999846
4.2200003 0.78000003 -0.039999846
4.2200003 0.82000005 -0.039999846
4.2600002 0.82000005 -0.039999846
4.2600002 0.82000005 1.5422702e-07
4.3400002 0.74000007 -0.079999849
4.3000002 0.74000007 -0.039999846
4.3400002 0.74000007 -0.039999846
4.3000002 0.78000003 -0.079999849
4.3000002 0.78000003 -0.039999846
4.3000002 0.78000003 1.5422702e-07
4.3000002 0.82000005 -0.039999846
4.3400002 0.82000005 -0.039999846
4.3400002 0.82000005 1.5422702e-07
4.2600002 0.78000003 0.040000156
4.0599999 0.86000007 -0.079999849
4.0599999 0.86000007 -0.039999846
4.0599999 0.90000004 1.5422702e-07
4.0999999 0.86000007 -0.039999846
4.0999999 0.90000004 -0.039999846
4.0999999 0.90000004 1.5422702e-07
4.0599999 0.98000008 -0.039999846
4.0999999 0.98000008 -0.039999846
4.1399999 0.86000007 -0.079999849
4.1399999 0.90000004 -0.079999849
4.1399999 0.86000007 -0.039999846
4.1399999 0.90000004 -0.039999846
4.1799998 0.86000007 -0.039999846
4.1399999 0.94000006 1.5422702e-07
4.1799998 0.94000006 -0.039999846
4.1799998 0.94000006 1.5422702e-07
4.1799998 0.98000008 1.5422702e-07
4.1399999 0.90000004 0.040000156
4.1799998 0.98000008 0.040000156
4.0599999 1.0200001 -0.039999846
4.0599999 1.0600001 1.5422702e-07
4.0599999 1.1 -0.079999849
4.0599999 1.1 1.5422702e-07
4.0599999 1.1400001 -0.039999846
4.0999999 1.1 -0.039999846
4.1399999 1.0600001 -0.079999849
4.1399999 1.0200001 -0.039999846
4.1399999 1.0200001 1.5422702e-07
4.1399999 1.0600001 -0.039999846
4.1799998 1.0200001 -0.039999846
4.1399999 1.1 -0.039999846
4.1399999 1.1400001 -0.039999846
4.1399999 1.1400001 1.5422702e-07
4.1799998 1.1 -0.039999846
4.1799998 1.1400001 1.5422702e-07
4.2600002 0.86000007 -0.079999849
4.2200003 0.86000007 -0.039999846
4.2600002 0.86000007 -0.039999846
4.2600002 0.90000004 -0.039999846
4.2600002 0.90000004 1.5422702e-07
4.2200003 0.94000006 -0.039999846
4.2200003 0.94000006 1.5422702e-07
4.2200003 0.98000008 1.5422702e-07
4.2600002 0.94000006 -0.039999846
4.2600002 0.98000008 -0.039999846
4.2600002 0.98000008 1.5422702e-07
4.3000002 0.86000007 -0.039999846
4.3000002 0.90000004 1.5422702e-07
4.3400002 0.86000007 -0.039999846
4.3400002 0.90000004 -0.039999846
4.3400002 0.90000004 1.5422702e-07
4.3000002 0.94000006 -0.039999846
4.3000002 0.98000008 -0.039999846
4.3000002 0.98000008 1.5422702e-07
4.3400002 0.94000006 -0.039999846
4.3400002 0.98000008 -0.039999846
4.3400002 0.98000008 1.5422702e-07
4.2600002 0.98000008 0.040000156
4.2200003 1.0200001 -0.039999846
4.2200003 1.0600001 -0.039999846
4.2200003 1.1 -0.039999846
4.2200003 1.1400001 -0.039999846
4.2200003 1.1400001 1.5422702e-07
4.2600002 1.1 -0.039999846
4.2600002 1.1400001 -0.039999846
4.2600002 1.1400001 1.5422702e-07
4.3000002 1.0200001 -0.039999846
4.3000002 1.0600001 -0.039999846
4.3400002 1.0200001 -0.039999846
4.3400002 1.0600001 -0.039999846
4.3000002 1.1 -0.039999846
4.3000002 1.1400001 -0.039999846
4.3400002 1.1 -0.039999846
4.3400002 1.1 1.5422702e-07
4.3400002 1.1400001 -0.039999846
4.7800002 0.50000006 0.16000016
4.98 0.50000006 -0.079999849
4.7800002 0.50000006 0.20000015
4.7800002 0.50000006 0.24000016
4.7800002 0.50000006 0.28000015
4.3800001 0.66000009 1.5422702e-07
4.4200001 0.66000009 -0.039999846
4.46 0.66000009 -0.039999846
4.3800001 0.70000005 1.5422702e-07
4.3800001 0.74000007 -0.039999846
4.4200001 0.70000005 1.5422702e-07
4.3800001 0.78000003 1.5422702e-07
4.4200001 0.78000003 -0.039999846
4.4200001 0.78000003 1.5422702e-07
4.4200001 0.82000005 -0.039999846
4.5 0.70000005 -0.039999846
4.5 0.70000005 1.5422702e-07
4.5 0.74000007 -0.039999846
4.46 0.78000003 -0.039999846
4.46 0.82000005 -0.039999846
4.5 0.78000003 -0.039999846
4.5 0.82000005 -0.039999846
4.54 0.66000009 1.5422702e-07
4.6199999 0.66000009 -0.039999846
4.6599998 0.66000009 -0.039999846
4.54 0.70000005 1.5422702e-07
4.54 0.74000007 -0.039999846
4.5799999 0.70000005 -0.039999846
4.5799999 0.74000007 -0.039999846
4.5799999 0.78000003 -0.079999849
4.54 0.78000003 -0.039999846
4.54 0.82000005 -0.039999846
4.5799999 0.78000003 -0.039999846
4.5799999 0.82000005 -0.039999846
4.6199999 0.70000005 -0.039999846
4.6199999 0.70000005 1.5422702e-07
4.6599998 0.70000005 -0.039999846
4.6599998 0.74000007 -0.039999846
4.6599998 0.74000007 1.5422702e-07
4.6199999 0.78000003 -0.039999846
4.6199999 0.82000005 -0.039999846
4.6599998 0.78000003 -0.039999846
4.6599998 0.82000005 -0.039999846
4.6599998 0.82000005 1.5422702e-07
4.3800001 0.86000007 -0.039999846
4.3800001 0.86000007 1.5422702e-07
4.4200001 0.86000007 -0.039999846
4.4200001 0.90000004 -0.039999846
4.4200001 0.90000004 1.5422702e-07
4.3800001 0.94000006 -0.079999849
4.3800001 0.94000006 -0.039999846
4.3800001 0.98000008 -0.039999846
4.4200001 0.94000006 -0.039999846
4.4200001 0.98000008 -0.039999846
4.46 0.86000007 -0.079999849
4.5 0.86000007 -0.079999849
4.46 0.86000007 -0.039999846
4.46 0.90000004 -0.039999846
4.5 0.90000004 -0.039999846
4.46 0.94000006 -0.039999846
4.46 0.98000008 -0.039999846
4.5 0.94000006 -0.039999846
4.5 0.98000008 -0.039999846
4.5 0.98000008 1.5422702e-07
4.3800001 1.0600001 -0.079999849
4.3800001 1.0200001 -0.039999846
4.3800001 1.0200001 1.5422702e-07
4.3800001 1.0600001 -0.039999846
4.4200001 1.0200001 -0.039999846
4.4200001 1.0600001 -0.039999846
4.3800001 1.1 -0.039999846
4.3800001 1.1400001 -0.039999846
4.4200001 1.1 -0.039999846
4.4200001 1.1400001 -0.039999846
4.46 1.0200001 -0.039999846
4.46 1.0600001 -0.039999846
4.5 1.0200001 -0.039999846
4.5 1.0200001 1.5422702e-07
4.5 1.0600001 -0.039999846
4.46 1.1 -0.039999846
4.46 1.1400001 -0.039999846
4.5 1.1 -0.039999846
4.5 1.1400001 -0.039999846
4.54 0.90000004 -0.039999846
4.5799999 0.86000007 -0.039999846
4.5799999 0.90000004 -0.039999846
4.54 0.94000006 -0.039999846
4.54 0.98000008 -0.039999846
4.5799999 0.94000006 -0.039999846
4.5799999 0.98000008 -0.039999846
4.6199999 0.86000007 -0.039999846
4.6199999 0.90000004 -0.039999846
4.6599998 0.86000007 -0.039999846
4.6599998 0.90000004 -0.039999846
4.6199999 0.94000006 -0.079999849
4.6199999 0.94000006 -0.039999846
4.6199999 0.98000008 -0.039999846
4.6599998 0.98000008 -0.039999846
4.54 1.0200001 -0.039999846
4.54 1.0600001 -0.039999846
4.5799999 1.0200001 -0.039999846
4.5799999 1.0600001 -0.039999846
4.54 1.1400001 -0.079999849
4.5799999 1.1 -0.079999849
4.54 1.1 -0.039999846
4.54 1.1400001 -0.039999846
4.5799999 1.1 -0.039999846
4.5799999 1.1400001 -0.039999846
4.6199999 1.0200001 -0.039999846
4.6199999 1.0600001 -0.039999846
4.6599998 1.0200001 -0.039999846
4.6599998 1.0600001 -0.039999846
4.6599998 1.1 -0.079999849
4.6199999 1.1 -0.039999846
4.6199999 1.1400001 -0.039999846
4.6599998 1.1 -0.039999846
4.6599998 1.1400001 -0.039999846
4.7000003 0.62000006 -0.039999846
4.7000003 0.66000009 -0.039999846
4.7000003 0.66000009 1.5422702e-07
4.7400002 0.62000006 -0.039999846
4.7400002 0.62000006 1.5422702e-07
4.7400002 0.66000009 -0.039999846
4.7400002 0.66000009 1.5422702e-07
4.7800002 0.62000006 -0.039999846
4.7800002 0.62000006 1.5422702e-07
4.7800002 0.66000009 -0.039999846
4.8200002 0.62000006 1.5422702e-07
4.8200002 0.66000009 -0.039999846
4.7400002 0.58000004 0.16000016
4.7800002 0.54000008 0.080000155
4.7800002 0.58000004 0.080000155
4.7800002 0.54000008 0.12000015
4.7800002 0.54000008 0.16000016
4.7800002 0.58000004 0.12000015
4.7800002 0.58000004 0.16000016
4.7000003 0.70000005 -0.039999846
4.7000003 0.74000007 -0.039999846
4.7400002 0.70000005 -0.039999846
4.7400002 0.74000007 -0.039999846
4.7400002 0.78000003 -0.079999849
4.7400002 0.82000005 -0.079999849
4.7000003 0.78000003 -0.039999846
4.7000003 0.82000005 -0.039999846
4.7400002 0.78000003 -0.039999846
4.7400002 0.82000005 -0.039999846
4.7400002 0.82000005 1.5422702e-07
4.8200002 0.70000005 -0.079999849
4.7800002 0.70000005 -0.039999846
4.7800002 0.74000007 -0.039999846
4.8200002 0.70000005 -0.039999846
4.8200002 0.70000005 1.5422702e-07
4.8200002 0.74000007 -0.039999846
4.7800002 0.78000003 -0.039999846
4.7800002 0.82000005 -0.039999846
4.8200002 0.78000003 -0.039999846
4.8200002 0.82000005 -0.039999846
4.8600001 0.54000008 1.5422702e-07
4.8600001 0.62000006 -0.039999846
4.8600001 0.62000006 1.5422702e-07
4.8600001 0.66000009 -0.039999846
4.8600001 0.66000009 1.5422702e-07
4.9000001 0.62000006 -0.039999846
4.9400001 0.54000008 -0.079999849
4.9400001 0.58000004 -0.079999849
4.9400001 0.54000008 -0.039999846
4.9400001 0.66000009 -0.039999846
4.8600001 0.74000007 -0.079999849
4.8600001 0.74000007 -0.039999846
4.9000001 0.74000007 -0.039999846
4.8600001 0.78000003 -0.039999846
4.8600001 0.82000005 -0.039999846
4.9000001 0.82000005 -0.039999846
4.9400001 0.74000007 -0.039999846
4.98 0.70000005 -0.039999846
4.98 0.78000003 -0.079999849
4.9400001 0.78000003 -0.039999846
4.9400001 0.78000003 1.5422702e-07
4.9400001 0.82000005 -0.039999846
4.98 0.82000005 -0.039999846
4.7400002 0.90000004 -0.079999849
4.7000003 0.86000007 -0.039999846
4.7000003 0.90000004 -0.039999846
4.7400002 0.86000007 -0.039999846
4.7400002 0.90000004 -0.039999846
4.7000003 0.94000006 -0.039999846
4.7000003 0.98000008 -0.039999846
4.7400002 0.94000006 -0.039999846
4.7400002 0.98000008 -0.039999846
4.8200002 0.90000004 -0.079999849
4.7800002 0.86000007 -0.039999846
4.7800002 0.90000004 -0.039999846
4.8200002 0.86000007 -0.039999846
4.8200002 0.90000004 -0.039999846
4.7800002 0.94000006 -0.039999846
4.7800002 0.98000008 -0.039999846
4.8200002 0.94000006 -0.039999846
4.8200002 0.98000008 -0.039999846
4.7000003 1.0200001 -0.079999849
4.7400002 1.0600001 -0.079999849
4.7000003 1.0200001 -0.039999846
4.7000003 1.0600001 -0.039999846
4.7400002 1.0200001 -0.039999846
4.7400002 1.0600001 -0.039999846
4.7000003 1.1 -0.039999846
4.7000003 1.1400001 -0.039999846
4.7400002 1.1 -0.039999846
4.7400002 1.1400001 -0.039999846
4.7400002 1.1400001 1.5422702e-07
4.7800002 1.0600001 -0.079999849
4.7800002 1.0200001 -0.039999846
4.7800002 1.0600001 -0.039999846
4.8200002 1.0200001 -0.039999846
4.8200002 1.0600001 -0.039999846
4.7800002 1.1 -0.079999849
4.7800002 1.1 -0.039999846
4.7800002 1.1400001 -0.039999846
4.8200002 1.1400001 -0.039999846
4.8600001 0.86000007 -0.039999846
4.8600001 0.90000004 -0.039999846
4.9000001 0.86000007 -0.039999846
4.9000001 0.98000008 -0.079999849
4.8600001 0.94000006 -0.039999846
4.8600001 0.98000008 -0.039999846
4.9000001 0.94000006 1.5422702e-07
4.9000001 0.98000008 -0.039999846
4.9400001 0.86000007 -0.079999849
4.98 0.86000007 -0.079999849
4.9400001 0.90000004 -0.039999846
4.9400001 0.90000004 1.5422702e-07
4.98 0.90000004 -0.039999846
4.9400001 0.94000006 -0.039999846
4.98 0.94000006 1.5422702e-07
4.98 0.98000008 -0.039999846
4.8600001 1.0600001 -0.079999849
4.9000001 1.0600001 -0.079999849
4.8600001 1.0200001 -0.039999846
4.8600001 1.0600001 -0.039999846
4.9000001 1.0600001 -0.039999846
4.8600001 1.1 -0.039999846
4.8600001 1.1400001 -0.039999846
4.9000001 1.1 -0.039999846
4.9000001 1.1400001 -0.039999846
4.9400001 1.0200001 -0.039999846
4.98 1.0200001 -0.039999846
4.98 1.0600001 1.5422702e-07
4.9400001 1.1 -0.039999846
4.9400001 1.1400001 -0.039999846
4.98 1.1 -0.039999846
4.98 1.1 1.5422702e-07
4.7400002 0.54000008 0.24000016
4.7400002 0.58000004 0.20000015
